ncols        681
nrows        39
xllcorner    -74.2395833333
yllcorner    40.0137499999
cellsize     0.000833333333
NODATA_value -9999.0
30 30 30 30 30 30 30 30 30 30 30 30 30 30 30 30 31 31 31 32 32 32 32 31 31 31 31 31 31 30 30 30 30 30 30 30 29 29 29 29 29 29 29 28 28 28 27 26 26 25 25 25 24 24 24 23 23 23 22 22 22 22 21 21 21 20 20 20 20 19 19 19 18 18 17 17 17 17 16 16 16 16 15 15 15 14 14 14 14 13 13 12 12 12 11 11 11 10 10 9 9 8 8 8 7 7 6 6 5 5 6 6 7 8 9 9 9 10 10 10 10 11 11 11 11 11 10 10 9 9 9 8 8 7 7 6 6 6 5 5 5 5 4 4 3 3 2 2 2 2 2 1 1 1 1 1 1 1 1 1 1 1 1 1 1 1 1 1 1 1 1 1 1 0 0 0 0 0 0 0 0 0 0 0 0 0 0 0 0 0 0 0 0 0 0 0 0 0 0 0 0 0 0 0 0 0 0 0 0 0 0 0 0 0 0 0 0 -1 -1 -1 -1 -1 -1 -1 -2 -2 -1 0 0 0 0 0 0 -2 -5 -6 -7 -8 -9 -9 -10 -11 -12 -13 -13 -14 -14 -15 -16 -16 -17 -17 -18 -18 -19 -19 -20 -20 -20 -20 -20 -21 -21 -21 -21 -20 -20 -19 -19 -19 -19 -19 -19 -19 -19 -19 -19 -20 -20 -20 -20 -20 -20 -21 -21 -21 -22 -22 -22 -22 -22 -22 -22 -22 -23 -23 -23 -23 -23 -23 -23 -23 -22 -22 -22 -22 -22 -22 -22 -21 -21 -21 -21 -21 -21 -21 -21 -21 -21 -22 -22 -22 -22 -22 -22 -22 -22 -23 -23 -23 -23 -23 -23 -23 -23 -23 -23 -22 -22 -22 -22 -22 -22 -22 -22 -21 -21 -21 -21 -21 -21 -21 -21 -21 -21 -21 -22 -22 -22 -22 -22 -22 -22 -22 -22 -22 -22 -22 -22 -22 -22 -22 -21 -21 -21 -21 -21 -21 -21 -21 -21 -21 -21 -21 -21 -21 -21 -21 -21 -21 -21 -21 -21 -21 -21 -21 -21 -22 -22 -22 -23 -23 -23 -23 -23 -23 -23 -23 -23 -23 -23 -23 -23 -23 -23 -23 -23 -23 -23 -23 -23 -23 -24 -24 -24 -23 -23 -23 -23 -24 -24 -24 -24 -24 -24 -25 -25 -25 -25 -25 -25 -24 -24 -24 -24 -24 -24 -24 -25 -25 -25 -25 -26 -26 -26 -26 -26 -26 -26 -26 -26 -26 -26 -26 -26 -26 -26 -26 -26 -26 -26 -26 -26 -26 -26 -26 -26 -26 -26 -26 -25 -25 -25 -25 -25 -25 -25 -26 -26 -26 -26 -26 -26 -26 -26 -26 -26 -26 -26 -26 -26 -26 -26 -26 -26 -26 -26 -26 -26 -27 -27 -27 -27 -27 -27 -27 -28 -28 -28 -28 -28 -28 -28 -28 -28 -28 -28 -28 -29 -28 -28 -28 -28 -28 -28 -28 -28 -28 -29 -29 -29 -29 -29 -29 -29 -29 -29 -29 -29 -30 -30 -30 -30 -30 -30 -30 -30 -29 -29 -29 -29 -29 -29 -29 -29 -29 -29 -28 -28 -28 -28 -28 -28 -28 -28 -29 -29 -29 -29 -29 -29 -29 -30 -30 -30 -30 -31 -31 -31 -31 -31 -31 -31 -31 -31 -31 -31 -31 -31 -31 -32 -32 -32 -32 -32 -32 -32 -32 -32 -32 -32 -32 -32 -32 -32 -32 -32 -32 -32 -32 -32 -32 -32 -32 -32 -32 -32 -32 -32 -32 -32 -32 -32 -32 -32 -32 -32 -32 -32 -32 -32 -32 -32 -32 -32 -32 -32 -32 -32 -32 -32 -32 -32 -32 -32 -32 -32 -32 -32 -33 -33 -33 -33 -33 -33 -33 -33 -33 -33 -33 -33 -33 -33 -33 -33 -33 -33 -33 -33 -33 -33
30 30 30 30 30 30 30 30 30 30 30 30 30 30 30 30 30 31 31 31 32 32 32 32 31 31 31 31 31 30 30 30 30 30 30 30 30 30 30 30 29 29 29 29 29 28 27 27 26 26 25 25 25 24 24 24 23 23 23 22 22 22 22 21 21 21 20 20 20 20 19 19 19 18 18 17 17 17 17 16 16 16 16 15 15 15 14 14 14 14 13 12 12 12 12 11 11 10 10 9 9 8 8 8 7 7 6 6 5 5 5 5 6 7 8 8 9 9 9 9 9 10 10 10 10 10 10 10 10 10 9 9 9 8 8 7 7 6 6 6 5 5 5 4 4 3 3 2 2 2 2 2 2 1 1 1 1 1 1 1 1 1 1 1 1 1 1 1 1 1 1 1 1 1 1 0 0 0 0 0 0 0 0 0 0 1 1 1 1 1 1 1 1 0 0 0 0 0 0 0 0 1 0 0 0 0 0 0 0 0 0 0 0 0 0 0 0 -1 -1 -1 -1 -1 -1 -1 -2 -2 -1 0 0 0 0 0 0 -3 -6 -6 -7 -8 -9 -10 -11 -11 -12 -13 -13 -14 -14 -15 -16 -17 -17 -18 -18 -18 -19 -19 -20 -20 -20 -21 -21 -21 -21 -21 -20 -20 -19 -19 -19 -19 -19 -18 -18 -19 -18 -18 -19 -19 -20 -20 -20 -20 -20 -21 -21 -21 -21 -21 -21 -21 -21 -22 -22 -22 -23 -23 -24 -23 -23 -23 -23 -23 -23 -22 -22 -22 -22 -21 -21 -21 -21 -21 -21 -21 -21 -21 -21 -21 -21 -22 -22 -22 -22 -22 -22 -23 -23 -23 -23 -23 -23 -23 -23 -23 -23 -23 -23 -22 -22 -22 -22 -22 -22 -22 -22 -21 -21 -21 -21 -21 -21 -21 -21 -21 -21 -21 -22 -22 -22 -22 -22 -22 -22 -22 -22 -22 -22 -22 -22 -22 -22 -22 -21 -21 -21 -21 -22 -22 -22 -22 -21 -21 -21 -21 -21 -21 -21 -21 -21 -21 -21 -21 -21 -21 -21 -21 -21 -21 -22 -22 -23 -23 -23 -23 -23 -23 -23 -23 -23 -23 -23 -23 -23 -23 -23 -23 -23 -23 -23 -23 -23 -24 -24 -24 -24 -23 -23 -24 -24 -24 -24 -24 -24 -25 -25 -25 -25 -25 -25 -25 -25 -24 -24 -24 -24 -24 -24 -25 -25 -25 -25 -26 -26 -26 -26 -26 -26 -26 -26 -26 -26 -26 -26 -26 -26 -26 -26 -26 -26 -26 -26 -26 -26 -26 -26 -26 -26 -26 -26 -25 -25 -25 -25 -25 -25 -25 -25 -25 -26 -26 -26 -26 -26 -26 -26 -26 -26 -26 -26 -26 -26 -26 -26 -26 -26 -26 -26 -26 -26 -27 -27 -27 -27 -27 -27 -27 -27 -27 -27 -27 -27 -28 -28 -28 -28 -28 -28 -28 -28 -28 -28 -28 -28 -28 -28 -28 -28 -28 -28 -29 -29 -29 -29 -29 -29 -29 -29 -29 -29 -29 -30 -30 -30 -30 -30 -30 -30 -29 -29 -29 -29 -29 -29 -29 -29 -28 -28 -28 -28 -28 -28 -28 -28 -28 -28 -29 -29 -29 -29 -29 -29 -29 -30 -30 -30 -31 -31 -31 -31 -31 -31 -31 -31 -31 -31 -31 -31 -31 -31 -31 -31 -32 -32 -32 -32 -32 -32 -32 -32 -32 -32 -32 -32 -32 -32 -32 -32 -32 -32 -32 -31 -31 -31 -31 -31 -31 -31 -31 -31 -31 -31 -31 -31 -31 -31 -32 -32 -32 -32 -32 -32 -32 -32 -32 -32 -32 -32 -32 -32 -32 -32 -32 -32 -32 -32 -32 -32 -32 -32 -33 -32 -33 -33 -32 -33 -33 -32 -32 -33 -33 -33 -33 -33 -33 -33 -33 -33 -33 -33 -33 -33
30 30 30 30 30 30 30 30 30 30 30 30 30 30 30 30 30 31 31 31 31 32 32 32 31 31 31 31 31 30 30 30 30 30 30 30 30 30 30 30 30 30 29 29 29 29 27 27 26 26 26 25 25 24 24 24 24 23 23 23 22 22 22 22 21 21 20 20 20 20 19 19 19 18 18 18 18 17 17 17 16 16 16 16 15 15 15 15 14 14 13 13 12 12 12 11 11 11 10 9 9 9 8 8 7 7 6 6 5 5 5 5 6 6 7 7 8 8 8 9 9 9 9 9 9 9 9 9 9 9 9 9 9 9 9 8 7 7 6 6 6 5 5 5 4 4 3 3 2 2 2 2 2 2 2 2 1 1 1 1 1 1 1 1 1 1 1 1 1 1 1 1 1 1 1 1 1 1 0 0 0 0 1 1 1 1 1 1 1 1 1 1 1 1 1 1 1 1 0 1 1 0 0 0 0 0 0 0 0 0 0 0 0 0 0 0 0 0 -2 -1 -1 -1 -1 -2 -2 -1 -1 0 0 0 0 0 0 -3 -5 -6 -7 -8 -9 -10 -11 -11 -12 -13 -13 -14 -15 -15 -16 -17 -18 -18 -18 -19 -19 -20 -20 -21 -21 -20 -20 -20 -21 -20 -20 -19 -19 -19 -19 -19 -18 -18 -17 -17 -16 -18 -19 -19 -20 -20 -20 -21 -21 -21 -21 -21 -21 -21 -21 -21 -22 -22 -22 -22 -23 -23 -23 -23 -23 -23 -23 -22 -22 -22 -22 -22 -21 -21 -21 -21 -21 -21 -21 -21 -21 -21 -21 -21 -22 -22 -22 -22 -22 -22 -23 -23 -23 -23 -23 -23 -23 -23 -23 -23 -23 -23 -23 -22 -22 -22 -22 -22 -22 -22 -21 -21 -21 -21 -21 -21 -21 -21 -21 -21 -21 -21 -22 -22 -22 -22 -22 -21 -21 -21 -21 -21 -22 -22 -22 -22 -22 -21 -21 -21 -21 -22 -22 -22 -22 -22 -22 -22 -22 -21 -21 -21 -21 -21 -20 -20 -20 -21 -21 -21 -21 -21 -21 -21 -21 -22 -22 -23 -23 -23 -23 -23 -23 -23 -23 -23 -23 -23 -23 -23 -23 -23 -23 -23 -23 -23 -23 -24 -24 -24 -23 -23 -23 -24 -24 -24 -24 -24 -25 -25 -25 -25 -25 -25 -25 -25 -25 -24 -24 -24 -24 -24 -24 -25 -25 -25 -26 -26 -26 -26 -26 -26 -26 -26 -26 -26 -26 -26 -26 -26 -26 -26 -26 -26 -26 -26 -26 -26 -26 -26 -26 -26 -26 -26 -26 -25 -25 -25 -25 -25 -25 -25 -25 -25 -26 -26 -26 -26 -26 -26 -26 -26 -26 -26 -26 -26 -26 -26 -26 -26 -26 -26 -26 -26 -26 -27 -27 -27 -27 -27 -27 -27 -27 -27 -27 -27 -27 -28 -28 -28 -28 -28 -28 -28 -28 -28 -28 -28 -28 -28 -28 -28 -28 -28 -29 -29 -29 -29 -29 -29 -29 -29 -29 -29 -29 -29 -29 -29 -29 -29 -29 -29 -29 -29 -29 -29 -29 -29 -29 -29 -28 -28 -28 -28 -28 -28 -28 -28 -28 -28 -29 -29 -29 -29 -29 -29 -29 -30 -30 -30 -30 -31 -31 -31 -31 -32 -32 -32 -32 -31 -31 -31 -31 -31 -31 -31 -31 -31 -31 -32 -32 -32 -32 -32 -32 -32 -32 -32 -31 -32 -31 -31 -32 -31 -31 -31 -31 -31 -31 -31 -31 -31 -31 -31 -31 -31 -31 -31 -31 -31 -32 -32 -32 -32 -32 -32 -32 -32 -32 -32 -32 -32 -32 -32 -32 -32 -32 -32 -32 -32 -32 -32 -32 -32 -32 -32 -32 -32 -33 -33 -33 -33 -32 -32 -32 -32 -32 -32 -32 -32 -32 -32 -33 -33 -33 -33 -32
30 30 30 30 30 30 30 30 30 30 30 30 30 30 30 30 30 30 31 31 31 32 32 32 31 31 31 31 30 30 30 30 30 30 30 30 30 30 30 30 30 30 30 30 30 29 28 27 27 26 26 26 25 25 25 24 24 23 23 23 23 23 22 22 22 21 21 20 20 20 20 19 19 19 18 18 18 18 17 17 17 17 16 16 16 15 15 15 15 14 14 13 13 12 12 12 11 11 10 9 9 9 8 8 7 7 6 6 5 5 5 4 5 5 6 6 7 7 7 8 8 8 8 9 9 8 8 9 8 8 9 8 8 8 8 8 8 8 7 7 6 6 5 5 4 4 3 3 3 2 2 2 2 2 2 2 2 2 1 1 1 1 1 1 1 1 1 1 1 1 1 1 1 1 1 1 1 1 1 1 1 1 1 1 1 1 1 1 1 1 1 1 1 1 1 1 1 1 1 0 0 0 0 0 0 0 0 0 0 0 0 0 0 0 0 0 0 -1 -2 -2 -2 -1 -1 -2 -2 -2 -2 0 0 0 0 0 -1 -4 -5 -7 -8 -8 -9 -10 -11 -12 -12 -13 -14 -14 -15 -16 -16 -17 -18 -18 -18 -19 -19 -20 -20 -20 -20 -20 -20 -20 -20 -20 -19 -19 -19 -19 -18 -17 -16 -16 -15 -17 -17 -18 -19 -20 -20 -20 -20 -21 -21 -21 -21 -21 -21 -21 -21 -21 -22 -22 -22 -23 -23 -23 -23 -23 -23 -23 -22 -22 -22 -22 -22 -22 -21 -21 -21 -21 -21 -21 -21 -21 -22 -22 -22 -22 -22 -22 -22 -22 -22 -23 -23 -23 -23 -23 -23 -23 -23 -23 -23 -23 -23 -23 -23 -22 -22 -22 -22 -22 -22 -22 -21 -21 -20 -20 -21 -21 -21 -21 -21 -21 -21 -22 -22 -22 -23 -22 -22 -21 -21 -21 -21 -21 -21 -22 -22 -22 -21 -21 -21 -21 -21 -22 -22 -22 -22 -22 -22 -22 -22 -22 -21 -21 -21 -20 -20 -20 -20 -20 -21 -21 -21 -21 -21 -21 -21 -21 -22 -22 -23 -23 -23 -23 -23 -23 -23 -23 -23 -22 -23 -23 -23 -23 -23 -23 -23 -23 -23 -23 -23 -23 -23 -23 -23 -24 -24 -24 -24 -25 -25 -25 -25 -25 -25 -25 -25 -25 -25 -24 -24 -24 -24 -24 -25 -25 -25 -25 -26 -26 -26 -26 -26 -26 -26 -26 -26 -26 -26 -26 -26 -26 -26 -26 -26 -26 -26 -26 -26 -26 -26 -26 -26 -26 -26 -26 -26 -25 -25 -25 -25 -25 -25 -25 -25 -25 -26 -26 -26 -26 -26 -26 -26 -26 -26 -26 -26 -26 -26 -26 -26 -26 -26 -26 -26 -26 -27 -27 -27 -27 -27 -27 -27 -27 -27 -27 -27 -27 -27 -28 -28 -28 -28 -28 -28 -28 -29 -29 -28 -28 -28 -28 -28 -28 -28 -28 -29 -29 -29 -29 -29 -29 -29 -29 -29 -29 -29 -29 -29 -29 -29 -29 -29 -29 -29 -29 -29 -29 -29 -29 -28 -28 -28 -28 -28 -28 -28 -28 -28 -28 -28 -29 -29 -29 -29 -29 -29 -29 -29 -30 -30 -30 -30 -31 -31 -31 -31 -32 -32 -32 -32 -31 -31 -31 -31 -31 -31 -31 -31 -31 -31 -31 -32 -32 -32 -32 -32 -32 -32 -32 -31 -31 -31 -31 -31 -31 -31 -31 -31 -31 -31 -31 -31 -31 -31 -31 -31 -31 -31 -31 -31 -31 -32 -32 -32 -32 -32 -32 -32 -32 -32 -32 -32 -32 -32 -32 -32 -32 -32 -32 -32 -32 -32 -32 -32 -32 -32 -32 -32 -32 -32 -33 -33 -32 -32 -32 -32 -32 -32 -32 -32 -32 -32 -32 -32 -32 -32 -32 -32
30 30 30 30 30 30 30 30 30 30 30 30 30 30 30 30 30 30 31 31 31 31 32 31 31 31 31 30 30 30 30 30 30 30 30 30 30 30 30 30 30 30 30 30 30 30 28 27 27 26 26 26 25 25 25 25 24 24 23 23 23 23 22 22 22 21 21 21 20 20 20 20 19 19 19 19 18 18 18 17 17 17 17 16 16 16 16 15 15 15 14 13 13 12 12 12 11 11 10 10 9 9 8 8 8 7 7 6 5 5 5 4 4 5 5 5 6 6 6 7 7 7 7 8 8 8 8 8 8 8 8 8 8 8 8 8 8 8 8 8 7 6 6 5 5 4 4 3 3 2 2 2 2 2 2 2 2 2 2 2 2 2 2 2 1 1 2 2 1 1 1 1 1 1 1 1 1 1 1 1 1 1 1 1 1 1 1 1 1 1 1 1 1 1 1 1 1 1 1 0 0 0 0 0 0 0 0 0 0 0 0 0 0 0 0 0 0 0 -1 -2 -2 -1 -1 -2 -2 -3 0 0 0 0 0 0 -2 -5 -6 -7 -8 -9 -9 -10 -11 -12 -12 -13 -14 -14 -15 -16 -16 -17 -18 -18 -18 -19 -19 -20 -20 -20 -20 -20 -20 -20 -20 -19 -19 -18 -18 -18 -17 -17 -16 -16 -16 -18 -18 -19 -20 -20 -20 -20 -21 -21 -21 -21 -21 -21 -21 -22 -22 -21 -22 -22 -22 -23 -23 -23 -23 -23 -23 -22 -22 -22 -22 -22 -22 -21 -21 -21 -21 -21 -21 -21 -21 -21 -22 -22 -22 -22 -21 -22 -22 -22 -23 -23 -23 -23 -23 -23 -23 -23 -23 -23 -23 -23 -23 -23 -23 -22 -22 -22 -22 -22 -22 -21 -21 -20 -20 -20 -21 -21 -21 -21 -21 -22 -22 -22 -22 -22 -22 -22 -22 -21 -21 -21 -21 -21 -21 -21 -22 -21 -21 -21 -21 -21 -21 -22 -22 -22 -21 -21 -21 -21 -21 -21 -21 -21 -20 -20 -20 -20 -20 -20 -20 -21 -21 -21 -21 -21 -21 -20 -21 -22 -22 -23 -23 -23 -23 -23 -23 -23 -22 -23 -23 -23 -23 -23 -23 -23 -23 -23 -23 -23 -23 -23 -23 -23 -23 -24 -24 -24 -24 -25 -25 -25 -25 -25 -25 -25 -25 -25 -25 -24 -24 -24 -24 -25 -25 -25 -25 -25 -26 -26 -26 -26 -26 -26 -26 -25 -25 -26 -26 -26 -26 -26 -26 -26 -26 -26 -26 -26 -26 -26 -26 -26 -26 -26 -26 -26 -26 -25 -25 -25 -25 -25 -25 -25 -25 -25 -25 -25 -26 -26 -26 -26 -26 -26 -26 -26 -26 -26 -26 -26 -26 -26 -26 -26 -26 -27 -27 -27 -27 -27 -27 -27 -27 -27 -27 -27 -27 -27 -27 -27 -27 -28 -28 -28 -28 -29 -29 -29 -29 -29 -28 -28 -28 -28 -28 -29 -29 -29 -29 -29 -29 -29 -29 -29 -29 -29 -29 -29 -29 -29 -29 -29 -29 -29 -29 -29 -28 -28 -28 -28 -28 -28 -28 -28 -28 -28 -28 -28 -28 -28 -28 -29 -29 -29 -29 -29 -29 -29 -29 -30 -30 -30 -30 -31 -31 -31 -31 -32 -32 -32 -32 -32 -31 -31 -31 -31 -31 -31 -31 -31 -31 -31 -31 -32 -32 -32 -32 -32 -32 -31 -31 -31 -31 -31 -31 -31 -31 -31 -31 -31 -31 -31 -31 -31 -31 -31 -31 -31 -31 -31 -31 -32 -32 -32 -32 -32 -32 -32 -32 -32 -32 -32 -32 -32 -32 -32 -32 -32 -32 -32 -32 -32 -32 -32 -32 -32 -32 -32 -32 -32 -32 -32 -32 -32 -32 -32 -32 -32 -32 -32 -32 -32 -32 -32 -32 -32 -32 -32 -32
30 30 30 30 30 30 30 30 30 30 30 30 30 30 30 30 30 30 30 31 31 31 32 31 31 31 30 30 30 30 30 30 30 30 30 30 30 30 30 30 30 30 30 30 30 30 28 28 27 27 26 26 26 25 25 25 24 24 24 23 23 23 23 22 22 22 21 21 21 20 20 20 20 19 19 19 19 18 18 18 17 17 17 16 16 16 16 15 15 15 14 13 13 13 12 12 12 11 11 10 9 9 9 8 8 7 7 6 5 5 5 4 4 4 4 5 5 5 5 6 6 6 7 7 7 7 7 7 7 7 7 7 7 7 7 7 7 7 7 7 7 7 6 6 5 5 4 4 3 3 3 2 2 2 2 2 2 2 2 2 2 2 2 2 2 2 2 2 2 2 1 1 1 1 1 1 1 1 1 1 1 1 1 1 1 1 1 1 1 1 1 1 1 1 1 1 1 1 0 0 0 0 0 0 0 0 0 0 0 0 0 0 0 0 0 0 0 0 -1 -1 -2 -2 -2 -2 -2 -1 0 0 0 0 0 0 -3 -5 -6 -7 -8 -9 -10 -11 -11 -12 -13 -13 -14 -15 -15 -16 -17 -17 -18 -18 -19 -19 -19 -20 -20 -20 -20 -20 -20 -19 -19 -18 -18 -17 -17 -18 -18 -17 -17 -18 -17 -18 -19 -20 -20 -21 -21 -21 -21 -21 -21 -21 -21 -21 -22 -22 -22 -22 -22 -22 -22 -22 -23 -23 -23 -23 -22 -22 -22 -22 -22 -22 -22 -22 -22 -22 -22 -22 -22 -22 -22 -22 -22 -22 -22 -22 -22 -22 -23 -23 -23 -23 -23 -23 -23 -23 -23 -23 -23 -23 -22 -23 -23 -23 -22 -22 -22 -22 -22 -22 -22 -22 -21 -21 -20 -20 -21 -21 -21 -21 -22 -22 -23 -22 -22 -22 -22 -22 -21 -21 -21 -21 -21 -21 -21 -21 -21 -21 -21 -21 -21 -21 -21 -22 -22 -21 -21 -21 -21 -21 -21 -21 -21 -20 -20 -20 -19 -20 -20 -20 -20 -20 -21 -21 -21 -21 -21 -21 -21 -22 -22 -22 -22 -22 -23 -23 -23 -23 -22 -23 -23 -23 -23 -23 -23 -23 -23 -23 -23 -23 -23 -23 -23 -23 -23 -24 -24 -24 -24 -25 -25 -25 -25 -25 -25 -25 -25 -25 -25 -24 -24 -24 -24 -25 -25 -25 -25 -25 -26 -26 -26 -26 -26 -26 -25 -25 -25 -25 -26 -26 -26 -26 -26 -26 -26 -26 -26 -26 -26 -26 -26 -26 -26 -26 -26 -26 -25 -25 -25 -25 -25 -25 -25 -25 -25 -25 -25 -26 -26 -26 -26 -26 -26 -26 -26 -26 -26 -26 -26 -26 -26 -26 -26 -27 -27 -27 -27 -27 -27 -27 -27 -27 -27 -27 -27 -27 -27 -27 -27 -27 -28 -28 -28 -28 -29 -29 -29 -29 -29 -29 -29 -28 -28 -28 -29 -29 -29 -29 -29 -29 -29 -29 -29 -29 -29 -29 -29 -29 -28 -28 -28 -28 -28 -28 -28 -28 -28 -28 -28 -28 -28 -28 -28 -28 -28 -28 -28 -28 -28 -28 -29 -29 -29 -29 -29 -29 -29 -29 -29 -30 -30 -30 -30 -31 -31 -31 -31 -32 -32 -32 -32 -32 -31 -31 -31 -31 -31 -31 -31 -31 -31 -31 -31 -31 -31 -31 -32 -32 -31 -31 -31 -31 -31 -31 -31 -31 -31 -31 -31 -31 -31 -31 -31 -31 -31 -31 -31 -31 -31 -31 -31 -31 -32 -32 -32 -32 -32 -32 -32 -32 -32 -32 -32 -32 -32 -32 -32 -32 -32 -32 -32 -32 -32 -32 -32 -32 -32 -32 -32 -32 -32 -32 -32 -32 -32 -32 -32 -32 -31 -31 -31 -31 -31 -31 -31 -31 -31 -31 -31
30 30 30 30 30 30 30 30 30 30 30 30 30 30 30 30 30 30 30 31 31 31 32 31 31 30 30 30 30 30 30 30 30 30 30 30 30 30 30 30 30 30 30 30 30 30 28 28 27 27 27 26 26 26 25 25 25 24 24 23 23 23 23 23 22 22 22 21 21 21 20 20 20 20 19 19 19 19 19 18 18 18 17 17 17 16 16 16 16 15 14 14 13 13 12 12 12 11 11 10 9 9 9 8 8 7 7 6 6 5 5 5 4 4 3 4 4 4 5 5 5 5 6 6 6 6 6 6 6 6 7 7 7 7 7 7 7 7 7 7 7 7 7 6 6 5 5 4 3 3 3 3 3 3 2 2 2 2 2 2 2 2 2 2 2 2 2 2 2 2 2 2 2 1 1 1 1 1 1 1 1 1 1 1 1 1 1 1 1 1 1 1 1 1 1 1 1 1 0 0 0 0 0 0 0 0 0 0 0 0 0 0 0 0 0 0 0 0 0 -1 -1 -2 -2 -2 -1 -1 0 0 0 0 0 0 -3 -5 -6 -7 -8 -9 -10 -11 -11 -12 -13 -14 -15 -15 -16 -16 -17 -18 -18 -18 -19 -19 -19 -19 -19 -19 -19 -19 -19 -19 -18 -18 -17 -16 -17 -18 -18 -18 -19 -19 -19 -19 -19 -20 -20 -21 -21 -21 -21 -21 -21 -21 -21 -21 -22 -22 -22 -22 -22 -22 -22 -22 -22 -23 -23 -23 -22 -22 -22 -22 -22 -22 -22 -22 -22 -22 -22 -22 -22 -22 -22 -23 -22 -22 -22 -22 -23 -23 -23 -23 -23 -23 -23 -23 -23 -23 -23 -23 -23 -22 -22 -23 -23 -22 -22 -22 -22 -22 -22 -22 -22 -22 -21 -21 -21 -21 -21 -21 -21 -21 -22 -22 -23 -23 -22 -22 -22 -21 -21 -21 -22 -21 -21 -21 -21 -21 -21 -21 -21 -21 -21 -21 -21 -21 -21 -21 -20 -20 -20 -20 -20 -21 -20 -20 -19 -19 -19 -19 -20 -20 -20 -20 -21 -21 -21 -21 -21 -21 -21 -22 -22 -22 -22 -22 -22 -22 -23 -23 -23 -23 -23 -23 -23 -23 -23 -23 -23 -23 -23 -23 -23 -23 -23 -23 -23 -24 -24 -24 -24 -25 -25 -25 -26 -25 -25 -25 -25 -25 -25 -24 -24 -24 -24 -25 -25 -25 -25 -25 -26 -26 -27 -26 -26 -26 -25 -25 -25 -25 -26 -26 -26 -26 -26 -26 -26 -26 -26 -26 -26 -26 -26 -25 -25 -25 -25 -25 -25 -25 -25 -25 -25 -25 -25 -25 -25 -25 -26 -26 -26 -26 -26 -26 -26 -26 -26 -26 -26 -26 -26 -26 -26 -26 -26 -27 -27 -27 -27 -27 -27 -27 -27 -27 -27 -27 -27 -27 -27 -27 -28 -28 -28 -28 -28 -28 -29 -29 -29 -29 -29 -29 -29 -29 -28 -28 -29 -29 -29 -29 -29 -29 -29 -29 -29 -29 -29 -29 -28 -28 -28 -28 -28 -28 -28 -28 -28 -28 -28 -28 -28 -28 -28 -28 -28 -28 -28 -28 -28 -28 -29 -29 -29 -29 -29 -29 -29 -29 -29 -29 -29 -30 -30 -30 -30 -31 -31 -31 -31 -32 -32 -32 -31 -32 -32 -31 -31 -31 -31 -31 -31 -32 -31 -31 -31 -31 -31 -31 -32 -32 -31 -31 -31 -31 -31 -31 -31 -31 -31 -31 -31 -32 -31 -31 -31 -31 -31 -32 -32 -32 -32 -32 -31 -31 -32 -32 -32 -32 -32 -32 -32 -32 -33 -32 -32 -32 -32 -32 -32 -32 -32 -32 -32 -32 -31 -32 -32 -32 -32 -32 -32 -31 -31 -31 -31 -31 -31 -31 -31 -31 -31 -31 -31 -31 -31 -31 -31 -30 -31 -31 -31
30 30 30 30 30 30 30 30 30 30 30 30 30 30 30 30 30 30 30 31 31 31 31 31 31 30 30 30 30 30 30 30 30 30 30 30 30 30 30 30 30 30 30 30 30 30 29 28 27 27 27 27 26 26 25 25 25 24 24 24 23 23 23 23 23 22 22 21 21 21 21 20 20 20 20 19 19 19 19 18 18 18 17 17 17 16 16 16 16 15 14 14 14 13 13 12 12 12 11 10 10 9 9 9 8 8 7 6 6 5 5 5 4 4 3 3 3 3 4 4 4 5 5 5 5 5 6 6 6 6 6 6 6 6 6 6 6 6 6 6 6 6 6 6 6 5 5 4 4 3 3 3 3 3 3 2 2 2 2 2 2 2 2 2 2 2 2 2 2 2 2 2 2 2 2 2 2 2 1 1 1 1 1 1 1 1 1 1 1 1 1 1 1 1 1 1 1 1 0 0 0 0 0 0 0 0 0 0 0 0 0 0 0 0 0 0 0 0 0 -1 -1 -2 -2 -2 -1 0 0 0 0 0 0 -1 -4 -5 -6 -7 -8 -9 -10 -11 -11 -12 -13 -14 -14 -15 -16 -16 -17 -18 -18 -18 -19 -19 -19 -19 -19 -19 -19 -19 -18 -18 -18 -18 -17 -18 -19 -19 -19 -19 -20 -20 -20 -20 -20 -20 -20 -20 -21 -21 -21 -21 -21 -21 -21 -21 -22 -22 -22 -22 -22 -22 -22 -22 -22 -22 -22 -22 -22 -22 -22 -22 -22 -22 -22 -22 -22 -22 -22 -22 -22 -22 -22 -23 -23 -23 -22 -23 -23 -23 -23 -23 -23 -23 -23 -23 -23 -23 -23 -23 -22 -22 -22 -22 -22 -22 -22 -22 -22 -21 -22 -22 -22 -22 -22 -21 -21 -21 -22 -22 -22 -22 -22 -22 -23 -22 -22 -22 -21 -21 -21 -21 -21 -21 -21 -21 -21 -21 -21 -21 -21 -22 -21 -21 -21 -21 -20 -20 -20 -19 -19 -19 -20 -20 -19 -19 -19 -19 -19 -19 -20 -20 -20 -20 -21 -21 -21 -21 -21 -21 -21 -22 -22 -22 -22 -22 -23 -23 -23 -23 -22 -23 -23 -23 -23 -23 -23 -23 -23 -23 -23 -23 -23 -23 -23 -23 -24 -24 -24 -24 -24 -25 -25 -25 -25 -25 -25 -25 -25 -25 -24 -24 -24 -24 -24 -25 -25 -25 -25 -26 -26 -26 -26 -26 -26 -26 -25 -25 -25 -25 -26 -26 -26 -26 -26 -26 -26 -26 -26 -26 -26 -25 -25 -25 -25 -25 -25 -25 -25 -25 -25 -25 -25 -25 -25 -25 -25 -25 -26 -26 -26 -26 -26 -26 -26 -26 -26 -26 -26 -26 -26 -26 -26 -26 -27 -27 -27 -27 -27 -27 -27 -27 -27 -27 -27 -27 -27 -27 -27 -27 -27 -27 -28 -28 -28 -28 -29 -29 -29 -29 -29 -29 -28 -28 -28 -28 -28 -29 -29 -29 -29 -28 -28 -28 -29 -28 -28 -28 -28 -28 -28 -28 -27 -27 -27 -27 -28 -28 -28 -28 -28 -28 -28 -28 -28 -28 -28 -28 -28 -28 -28 -28 -29 -29 -29 -29 -29 -29 -29 -29 -29 -29 -30 -30 -30 -30 -31 -31 -31 -32 -32 -32 -32 -32 -32 -32 -32 -32 -31 -31 -31 -31 -31 -31 -31 -31 -31 -31 -31 -31 -31 -31 -31 -31 -31 -31 -31 -31 -31 -31 -31 -31 -31 -31 -31 -31 -31 -31 -32 -32 -32 -32 -32 -32 -32 -32 -32 -32 -32 -32 -32 -32 -32 -32 -32 -32 -32 -32 -32 -32 -32 -31 -31 -31 -31 -31 -31 -31 -31 -31 -31 -31 -31 -31 -31 -31 -31 -31 -31 -31 -31 -31 -31 -31 -31 -31 -31 -30 -30 -31 -31
30 30 30 30 30 30 30 30 30 30 30 30 30 30 30 30 30 30 30 31 31 31 31 31 31 30 30 30 30 30 30 30 30 30 30 30 30 30 30 30 30 30 30 30 30 30 29 28 28 27 27 27 26 26 26 26 25 25 24 24 24 23 23 23 23 22 22 22 22 21 21 21 20 20 20 20 20 20 19 19 19 18 18 18 17 17 17 16 16 15 15 14 14 13 13 12 12 12 11 10 10 9 9 9 8 8 7 6 6 5 5 5 4 4 3 3 2 2 3 3 3 4 5 5 5 5 5 5 5 6 6 6 6 6 6 6 6 6 6 6 6 6 6 6 6 6 5 5 4 4 4 3 3 3 3 3 3 2 2 2 2 2 2 2 2 2 2 2 2 2 2 2 2 2 2 2 2 2 2 2 2 1 1 1 1 1 2 2 1 1 1 1 1 1 1 1 1 0 0 0 0 0 0 0 0 0 0 0 0 0 0 0 0 0 0 0 0 0 -1 -2 -2 -2 -2 -1 0 0 0 0 0 0 0 -2 -5 -6 -7 -8 -9 -10 -10 -11 -12 -12 -13 -14 -14 -15 -16 -17 -17 -18 -18 -18 -18 -19 -19 -19 -19 -19 -19 -19 -18 -18 -18 -18 -17 -19 -20 -20 -20 -20 -21 -20 -20 -20 -20 -20 -20 -20 -20 -21 -21 -21 -21 -21 -21 -21 -22 -22 -22 -22 -22 -22 -22 -22 -22 -22 -22 -22 -22 -22 -22 -22 -22 -22 -22 -22 -22 -22 -22 -22 -22 -22 -22 -23 -23 -23 -23 -23 -23 -23 -23 -23 -23 -23 -23 -23 -23 -23 -23 -22 -22 -22 -22 -22 -22 -22 -22 -22 -22 -22 -22 -22 -22 -22 -22 -22 -22 -22 -22 -22 -23 -22 -22 -22 -22 -22 -22 -21 -21 -21 -21 -21 -21 -21 -21 -21 -22 -21 -21 -21 -21 -21 -21 -21 -21 -20 -20 -19 -19 -19 -19 -19 -19 -19 -19 -19 -19 -19 -19 -19 -20 -20 -20 -20 -21 -21 -21 -21 -21 -21 -22 -22 -22 -23 -23 -23 -23 -23 -23 -23 -23 -23 -23 -23 -23 -23 -23 -23 -23 -23 -23 -23 -23 -23 -23 -24 -24 -24 -24 -24 -24 -25 -25 -25 -25 -25 -25 -24 -24 -24 -24 -24 -24 -24 -24 -25 -25 -25 -25 -26 -26 -26 -26 -26 -26 -26 -26 -25 -25 -25 -25 -26 -26 -26 -25 -25 -25 -26 -25 -25 -25 -25 -25 -25 -25 -25 -25 -25 -25 -25 -25 -25 -25 -25 -25 -25 -25 -25 -26 -26 -26 -26 -26 -26 -26 -26 -26 -26 -25 -26 -26 -26 -26 -27 -27 -27 -27 -27 -27 -27 -27 -27 -27 -27 -27 -27 -27 -27 -27 -27 -27 -27 -28 -28 -28 -28 -28 -29 -29 -29 -29 -29 -28 -28 -28 -28 -28 -28 -28 -28 -28 -28 -28 -28 -28 -28 -28 -28 -27 -27 -27 -27 -27 -27 -27 -27 -27 -28 -28 -28 -28 -28 -28 -28 -28 -28 -28 -28 -28 -28 -28 -28 -29 -29 -29 -29 -29 -29 -29 -29 -29 -29 -30 -30 -30 -30 -31 -31 -31 -32 -32 -32 -32 -32 -32 -32 -32 -32 -32 -32 -31 -31 -32 -32 -32 -32 -32 -32 -32 -31 -31 -31 -31 -31 -31 -31 -31 -31 -31 -31 -31 -31 -31 -31 -31 -31 -31 -31 -31 -32 -32 -32 -32 -32 -32 -32 -32 -32 -32 -32 -32 -32 -32 -32 -32 -32 -31 -31 -31 -31 -31 -31 -31 -31 -31 -31 -31 -31 -31 -31 -31 -31 -31 -31 -31 -31 -31 -31 -31 -30 -30 -30 -30 -30 -30 -30 -30 -30 -30 -30 -30
30 30 30 30 30 30 30 30 30 30 30 30 30 30 30 30 30 30 30 30 31 31 31 31 31 30 30 30 30 30 30 30 30 30 30 30 30 30 30 30 30 30 30 30 30 29 29 29 28 27 27 27 27 26 26 26 25 25 25 24 24 24 23 23 23 23 22 22 22 21 21 21 21 20 20 20 20 20 20 19 19 19 18 18 18 17 17 16 16 16 15 14 14 14 13 13 12 12 11 11 10 10 9 9 9 8 7 7 6 6 5 5 5 4 3 3 2 2 2 2 2 3 4 4 4 4 5 5 5 5 5 5 5 5 5 6 5 5 5 5 5 5 5 5 5 5 5 5 4 4 4 4 3 3 3 3 3 3 3 3 2 2 2 2 2 2 2 2 2 2 2 2 2 2 2 2 2 2 2 2 2 2 2 2 2 2 1 1 1 1 1 1 1 1 1 1 1 0 0 0 0 0 0 0 0 0 0 0 0 0 0 0 0 -1 -1 -1 -1 -2 -1 -2 -2 -2 -1 0 0 0 0 0 0 0 0 -3 -5 -6 -7 -8 -9 -10 -10 -11 -12 -12 -13 -14 -15 -15 -16 -17 -17 -18 -18 -18 -18 -18 -19 -19 -19 -19 -19 -19 -19 -19 -19 -19 -19 -20 -20 -21 -21 -21 -21 -21 -20 -20 -20 -20 -20 -20 -20 -21 -21 -21 -21 -21 -21 -21 -22 -22 -22 -22 -22 -22 -22 -22 -22 -22 -22 -22 -22 -22 -23 -22 -22 -22 -22 -22 -22 -22 -22 -22 -22 -22 -22 -22 -22 -23 -23 -23 -23 -23 -23 -23 -23 -23 -23 -23 -23 -23 -22 -22 -22 -22 -22 -22 -22 -22 -22 -22 -22 -22 -22 -22 -22 -22 -22 -21 -22 -22 -22 -22 -22 -22 -22 -22 -22 -22 -22 -21 -21 -21 -21 -22 -21 -21 -21 -21 -21 -21 -21 -21 -21 -21 -21 -21 -20 -20 -19 -19 -18 -18 -18 -18 -18 -18 -18 -18 -18 -19 -19 -19 -20 -20 -20 -20 -21 -21 -21 -21 -21 -22 -22 -22 -23 -23 -23 -23 -23 -23 -23 -23 -23 -23 -23 -23 -23 -23 -23 -23 -23 -23 -23 -23 -23 -23 -24 -24 -24 -24 -24 -24 -25 -25 -24 -24 -24 -24 -24 -24 -24 -24 -24 -24 -24 -24 -24 -24 -25 -25 -25 -26 -26 -26 -26 -26 -26 -26 -26 -25 -25 -25 -25 -25 -25 -25 -25 -25 -25 -25 -25 -25 -25 -25 -25 -25 -25 -25 -25 -24 -24 -25 -25 -24 -24 -24 -25 -25 -25 -26 -26 -26 -26 -26 -26 -26 -26 -26 -26 -26 -26 -26 -26 -26 -26 -27 -27 -27 -27 -27 -27 -27 -27 -27 -27 -27 -27 -27 -27 -27 -27 -27 -27 -27 -28 -28 -28 -28 -28 -28 -28 -28 -28 -28 -29 -28 -28 -28 -28 -28 -28 -28 -28 -28 -28 -28 -27 -27 -27 -27 -27 -27 -27 -27 -27 -27 -27 -27 -27 -28 -28 -28 -28 -28 -28 -28 -28 -28 -28 -28 -28 -28 -28 -29 -29 -29 -29 -29 -29 -29 -29 -29 -29 -29 -29 -30 -30 -30 -31 -31 -31 -32 -32 -32 -33 -33 -33 -32 -32 -32 -32 -32 -32 -32 -32 -32 -32 -32 -32 -32 -32 -32 -31 -31 -31 -31 -31 -31 -31 -31 -31 -31 -31 -31 -31 -31 -31 -31 -31 -31 -31 -32 -32 -32 -32 -32 -32 -32 -32 -32 -32 -32 -32 -32 -32 -31 -31 -31 -31 -31 -31 -31 -31 -31 -31 -31 -31 -31 -31 -31 -31 -31 -31 -31 -31 -30 -30 -30 -30 -30 -30 -30 -30 -30 -30 -30 -30 -30 -30 -30 -30 -30 -30
29 29 29 30 30 30 30 30 30 30 30 30 30 30 30 30 30 30 30 30 30 31 31 31 31 30 30 30 30 30 30 30 30 30 30 30 30 30 30 30 30 30 30 30 30 30 29 29 28 28 27 27 27 27 26 26 26 25 25 25 24 24 24 23 23 23 23 22 22 22 22 21 21 21 20 20 20 20 20 20 19 19 18 18 18 17 17 17 16 16 15 15 14 14 13 13 12 12 11 11 10 10 9 9 9 8 8 7 6 6 5 5 5 4 4 3 2 2 2 2 2 2 3 4 4 4 4 4 4 5 5 5 5 5 5 5 5 5 5 5 5 5 5 5 5 5 5 5 5 4 4 4 4 3 3 3 3 3 3 3 3 3 2 2 2 2 2 2 2 2 2 2 2 2 2 2 2 2 2 2 2 2 1 1 1 1 1 1 1 1 1 1 1 1 1 1 1 0 0 0 0 0 0 0 0 0 0 0 0 0 0 0 0 -1 -1 -1 -2 -2 -2 -2 -1 -2 -2 0 0 0 0 0 0 0 -1 -4 -5 -6 -7 -8 -9 -10 -11 -11 -12 -13 -13 -14 -15 -15 -16 -17 -17 -18 -18 -18 -18 -19 -19 -19 -19 -19 -19 -19 -19 -19 -19 -19 -20 -20 -21 -21 -21 -21 -21 -21 -20 -20 -20 -20 -20 -20 -20 -21 -21 -21 -21 -21 -21 -21 -22 -22 -22 -22 -22 -22 -23 -23 -23 -22 -22 -22 -22 -22 -22 -22 -22 -22 -22 -22 -21 -22 -22 -22 -22 -22 -22 -22 -22 -22 -22 -23 -23 -23 -23 -23 -23 -23 -23 -23 -23 -22 -22 -22 -22 -22 -22 -22 -22 -22 -22 -22 -22 -22 -22 -23 -22 -22 -22 -22 -22 -22 -22 -22 -22 -22 -22 -22 -22 -22 -22 -21 -21 -21 -21 -22 -21 -21 -21 -21 -21 -21 -20 -20 -20 -21 -21 -20 -20 -20 -20 -19 -19 -18 -18 -18 -18 -18 -18 -18 -18 -19 -19 -20 -20 -20 -20 -20 -21 -21 -21 -21 -22 -22 -22 -23 -23 -23 -23 -23 -23 -23 -23 -22 -22 -22 -23 -23 -23 -23 -23 -23 -23 -23 -23 -23 -23 -23 -24 -24 -24 -25 -24 -24 -25 -25 -24 -24 -24 -24 -24 -24 -24 -24 -24 -24 -24 -24 -24 -24 -25 -25 -25 -26 -26 -26 -26 -26 -26 -26 -26 -25 -25 -25 -25 -25 -25 -25 -25 -25 -25 -25 -25 -25 -25 -25 -25 -25 -25 -25 -24 -24 -24 -24 -25 -24 -24 -24 -24 -25 -25 -25 -26 -26 -26 -26 -26 -26 -26 -26 -26 -26 -26 -26 -26 -26 -26 -27 -27 -27 -27 -28 -28 -28 -27 -27 -27 -27 -27 -27 -27 -27 -27 -28 -28 -28 -28 -28 -28 -28 -28 -28 -28 -28 -28 -28 -28 -28 -28 -28 -28 -28 -28 -28 -28 -27 -27 -27 -27 -27 -27 -26 -26 -26 -26 -26 -27 -27 -27 -27 -28 -28 -28 -28 -28 -28 -28 -28 -28 -28 -28 -28 -28 -28 -28 -29 -29 -29 -29 -29 -29 -29 -29 -29 -29 -29 -29 -30 -30 -30 -31 -31 -31 -32 -33 -33 -33 -34 -33 -32 -32 -32 -32 -32 -32 -32 -32 -32 -32 -32 -32 -32 -32 -32 -31 -31 -31 -31 -31 -31 -31 -31 -31 -31 -31 -31 -31 -31 -31 -31 -31 -31 -31 -32 -32 -32 -32 -32 -32 -32 -32 -32 -31 -31 -31 -31 -31 -31 -31 -31 -31 -31 -31 -31 -31 -31 -31 -30 -30 -30 -30 -30 -30 -30 -30 -30 -30 -30 -30 -30 -30 -30 -30 -30 -30 -30 -30 -30 -30 -30 -29 -30 -30 -30 -30
29 29 29 29 29 30 30 30 30 30 30 30 30 30 30 30 30 30 30 30 30 30 31 31 31 30 30 30 30 30 30 30 30 30 30 30 30 30 30 30 30 30 30 30 30 30 29 29 28 28 28 27 27 27 27 26 26 25 25 25 24 24 24 24 23 23 23 23 22 22 22 22 21 21 21 20 20 20 20 20 20 19 19 19 18 18 18 17 17 16 15 15 14 14 14 13 13 12 11 11 10 10 10 9 9 8 8 7 6 6 5 5 5 4 4 3 2 2 2 2 1 2 2 3 3 3 3 3 4 4 4 4 5 5 5 5 5 5 5 5 5 5 5 5 5 5 4 4 4 4 4 4 4 4 3 3 3 3 3 3 3 3 3 2 2 2 2 2 2 2 2 2 2 2 2 2 2 2 2 2 2 2 1 1 1 1 1 1 1 1 1 1 1 1 1 1 0 0 0 0 0 0 0 0 0 0 0 0 0 0 0 0 0 0 0 -1 -2 -2 -1 -1 -2 -2 -2 -1 0 0 0 0 0 0 -2 -4 -6 -6 -8 -9 -9 -10 -11 -11 -12 -13 -13 -14 -15 -16 -16 -17 -18 -18 -18 -18 -18 -19 -19 -19 -19 -19 -19 -19 -19 -19 -19 -20 -20 -20 -21 -21 -21 -20 -20 -20 -20 -20 -20 -20 -20 -20 -20 -21 -21 -21 -21 -21 -21 -21 -21 -22 -22 -22 -22 -23 -23 -23 -23 -23 -22 -22 -22 -22 -22 -22 -22 -22 -22 -21 -21 -22 -22 -22 -22 -22 -22 -22 -22 -22 -22 -22 -23 -23 -23 -23 -23 -23 -23 -23 -22 -22 -22 -22 -22 -22 -22 -22 -22 -22 -22 -22 -22 -22 -23 -23 -23 -23 -22 -22 -22 -22 -22 -22 -22 -22 -22 -22 -22 -22 -22 -22 -21 -21 -21 -22 -21 -21 -21 -21 -21 -20 -20 -20 -20 -20 -20 -20 -20 -20 -20 -19 -19 -19 -19 -18 -18 -18 -18 -19 -19 -19 -19 -20 -20 -20 -20 -20 -21 -21 -21 -21 -21 -21 -22 -23 -23 -23 -23 -23 -23 -23 -22 -22 -22 -22 -22 -23 -23 -23 -23 -23 -23 -23 -24 -24 -24 -23 -23 -23 -24 -24 -24 -24 -24 -24 -24 -24 -24 -24 -24 -24 -24 -24 -24 -24 -24 -24 -24 -24 -25 -25 -25 -25 -26 -26 -26 -25 -25 -25 -25 -25 -25 -25 -25 -25 -25 -25 -25 -25 -25 -25 -25 -25 -25 -25 -25 -25 -25 -24 -24 -24 -24 -24 -24 -24 -24 -24 -24 -25 -25 -25 -26 -26 -26 -26 -26 -26 -26 -26 -26 -26 -26 -26 -26 -26 -27 -27 -27 -27 -27 -28 -28 -28 -28 -27 -27 -27 -27 -27 -27 -27 -27 -28 -28 -28 -28 -28 -28 -28 -28 -28 -28 -28 -28 -28 -28 -28 -28 -28 -28 -28 -28 -27 -27 -27 -27 -27 -26 -26 -26 -26 -26 -26 -26 -26 -26 -26 -27 -27 -27 -28 -28 -28 -28 -28 -28 -28 -28 -28 -28 -28 -28 -28 -28 -28 -28 -28 -28 -28 -28 -28 -29 -29 -29 -29 -29 -30 -30 -30 -31 -31 -31 -32 -32 -32 -33 -33 -32 -32 -32 -32 -32 -32 -32 -32 -32 -32 -32 -32 -32 -32 -32 -31 -31 -31 -31 -31 -31 -31 -31 -31 -31 -31 -31 -31 -31 -31 -31 -31 -31 -31 -31 -32 -32 -32 -32 -32 -32 -32 -32 -32 -31 -31 -31 -31 -31 -31 -31 -31 -31 -31 -31 -31 -31 -31 -30 -30 -30 -30 -30 -30 -30 -30 -30 -30 -30 -30 -30 -30 -30 -30 -29 -29 -29 -29 -29 -29 -29 -29 -29 -30 -30 -30 -30
29 29 29 29 29 29 29 29 30 30 30 30 30 30 30 30 30 30 30 30 30 30 30 31 30 30 30 30 30 30 30 30 30 30 30 30 30 30 30 30 30 30 30 30 30 30 30 29 29 28 28 28 27 27 27 27 26 26 25 25 25 25 24 24 24 23 23 23 23 22 22 22 22 21 21 21 21 20 20 20 20 20 19 19 18 18 18 17 17 16 16 15 15 14 14 13 13 12 12 11 11 10 10 9 9 8 8 7 7 6 6 5 5 4 4 3 3 2 2 2 1 1 2 2 2 2 3 3 3 3 4 4 4 4 4 5 5 5 5 5 4 4 4 4 4 4 4 4 4 4 4 4 4 4 3 3 3 3 3 3 3 3 3 2 2 2 2 2 2 2 2 2 2 2 2 2 2 2 2 2 2 1 1 1 1 1 1 1 1 1 1 1 1 1 1 0 0 0 0 0 0 0 0 0 0 0 0 0 0 0 0 0 0 0 0 -1 -2 -2 -1 -1 -2 -2 -2 -1 0 0 0 0 0 0 -3 -5 -6 -7 -8 -9 -9 -10 -11 -12 -12 -13 -14 -14 -15 -16 -16 -17 -18 -18 -18 -18 -19 -19 -19 -19 -19 -19 -19 -19 -19 -19 -20 -19 -20 -20 -21 -21 -20 -20 -19 -19 -20 -20 -20 -20 -20 -20 -20 -21 -21 -21 -21 -21 -21 -21 -21 -22 -22 -22 -22 -23 -23 -23 -23 -23 -22 -22 -22 -22 -22 -22 -22 -22 -22 -21 -22 -22 -22 -22 -22 -23 -23 -23 -23 -23 -23 -23 -23 -23 -23 -23 -23 -23 -22 -22 -22 -22 -22 -22 -22 -22 -22 -22 -22 -22 -22 -22 -22 -23 -23 -23 -23 -23 -23 -23 -23 -22 -22 -22 -22 -22 -22 -22 -22 -22 -21 -21 -21 -21 -21 -21 -21 -21 -21 -20 -20 -20 -20 -20 -20 -20 -20 -20 -20 -20 -20 -19 -19 -20 -19 -19 -18 -18 -18 -19 -19 -19 -19 -20 -20 -20 -20 -20 -21 -21 -21 -21 -21 -22 -22 -22 -23 -23 -23 -22 -22 -22 -22 -22 -22 -22 -22 -22 -23 -23 -23 -23 -23 -24 -24 -24 -24 -23 -23 -23 -23 -23 -24 -24 -24 -24 -24 -24 -24 -24 -24 -24 -24 -24 -24 -24 -25 -25 -25 -25 -25 -25 -25 -25 -25 -25 -25 -25 -25 -25 -25 -25 -25 -25 -25 -25 -25 -25 -25 -24 -24 -25 -25 -25 -25 -24 -24 -24 -24 -24 -24 -24 -24 -24 -24 -24 -24 -24 -25 -25 -25 -25 -26 -26 -26 -26 -26 -26 -26 -26 -26 -26 -26 -26 -26 -26 -27 -27 -27 -27 -27 -28 -28 -28 -28 -28 -28 -27 -27 -27 -27 -27 -27 -27 -27 -28 -28 -28 -28 -28 -28 -28 -28 -28 -28 -28 -28 -28 -28 -27 -27 -27 -27 -27 -27 -27 -27 -27 -26 -26 -26 -26 -26 -26 -26 -26 -26 -26 -27 -27 -27 -28 -28 -28 -28 -28 -28 -28 -28 -28 -28 -28 -28 -28 -28 -28 -28 -28 -28 -28 -28 -28 -29 -29 -29 -29 -30 -30 -30 -30 -31 -31 -31 -31 -32 -32 -32 -32 -32 -32 -31 -31 -31 -31 -31 -31 -31 -31 -31 -31 -31 -31 -31 -31 -31 -31 -31 -31 -31 -31 -31 -31 -31 -31 -31 -31 -31 -31 -31 -31 -31 -31 -31 -31 -32 -32 -32 -32 -32 -32 -32 -31 -31 -31 -31 -31 -31 -31 -31 -31 -31 -31 -31 -31 -30 -30 -30 -30 -30 -30 -30 -30 -30 -30 -30 -30 -30 -30 -29 -29 -29 -29 -29 -29 -29 -29 -29 -29 -29 -29 -29 -30 -30 -30 -30
28 29 28 29 29 29 29 29 29 30 30 30 30 30 30 30 30 30 30 30 30 30 30 31 30 30 30 30 30 30 30 30 30 30 30 30 30 30 30 30 30 30 30 30 30 30 30 30 29 29 28 28 27 27 27 27 27 26 26 25 25 25 24 24 24 23 23 23 23 23 22 22 22 22 21 21 21 21 21 20 20 20 20 19 19 18 18 18 17 17 16 15 15 14 14 13 13 12 12 11 11 10 10 9 9 8 8 7 7 6 6 5 5 4 4 3 3 2 2 1 1 1 1 2 1 2 2 2 2 3 3 3 4 4 4 4 4 4 4 4 4 4 4 4 4 4 4 4 4 4 4 3 4 3 3 3 3 3 3 3 3 3 3 2 2 2 2 2 2 2 2 2 2 2 2 2 2 2 2 2 1 1 1 1 1 1 1 1 1 1 1 1 1 0 0 0 0 0 0 0 0 0 0 0 0 0 0 0 0 0 0 0 -1 -1 0 0 -2 -1 -2 -2 -2 -2 -2 -1 0 0 0 0 0 -1 -3 -5 -6 -7 -8 -9 -10 -11 -11 -12 -13 -13 -14 -15 -15 -16 -17 -17 -18 -18 -18 -19 -19 -19 -19 -19 -19 -19 -19 -19 -19 -20 -20 -20 -20 -20 -20 -21 -20 -20 -19 -19 -20 -20 -20 -20 -20 -20 -20 -20 -20 -21 -21 -21 -21 -21 -21 -22 -22 -22 -22 -23 -23 -23 -23 -23 -22 -22 -22 -22 -22 -22 -22 -22 -22 -22 -22 -22 -22 -22 -22 -23 -23 -23 -23 -23 -23 -23 -23 -22 -22 -22 -22 -22 -22 -22 -22 -22 -22 -22 -22 -22 -22 -22 -22 -22 -22 -22 -23 -23 -23 -23 -23 -23 -23 -23 -23 -22 -22 -22 -22 -22 -22 -22 -22 -21 -21 -21 -21 -21 -21 -21 -21 -21 -20 -20 -20 -20 -20 -20 -20 -21 -20 -20 -20 -20 -19 -19 -19 -19 -19 -18 -18 -18 -18 -18 -18 -18 -17 -19 -20 -20 -20 -20 -21 -21 -21 -21 -22 -22 -22 -23 -23 -23 -22 -22 -22 -22 -22 -22 -22 -22 -22 -23 -23 -23 -23 -23 -24 -24 -24 -24 -24 -23 -23 -23 -23 -23 -23 -24 -24 -24 -24 -24 -24 -24 -24 -24 -24 -24 -24 -25 -25 -25 -25 -25 -24 -24 -25 -25 -25 -25 -25 -25 -25 -25 -25 -25 -25 -25 -25 -25 -25 -25 -24 -24 -24 -24 -25 -24 -24 -24 -24 -24 -24 -24 -24 -24 -24 -24 -24 -24 -24 -24 -25 -25 -25 -25 -26 -26 -26 -26 -26 -26 -25 -26 -26 -26 -26 -26 -26 -27 -27 -27 -27 -27 -28 -28 -28 -28 -28 -28 -28 -28 -27 -27 -27 -27 -28 -28 -27 -28 -28 -28 -28 -28 -28 -28 -28 -28 -28 -27 -27 -27 -27 -27 -27 -27 -27 -27 -27 -27 -27 -27 -27 -26 -26 -26 -26 -26 -26 -26 -26 -27 -27 -27 -28 -28 -28 -28 -28 -28 -28 -28 -28 -28 -28 -28 -28 -28 -28 -28 -28 -28 -28 -28 -28 -28 -29 -29 -29 -29 -30 -30 -30 -30 -31 -31 -31 -31 -31 -31 -31 -31 -31 -31 -31 -31 -31 -31 -31 -31 -31 -31 -31 -31 -31 -31 -31 -31 -31 -31 -31 -31 -31 -31 -31 -31 -31 -31 -31 -31 -31 -31 -31 -31 -31 -31 -31 -31 -31 -32 -32 -32 -32 -31 -31 -31 -31 -31 -31 -31 -31 -31 -30 -30 -30 -30 -30 -30 -30 -30 -30 -30 -30 -30 -30 -30 -30 -30 -30 -29 -29 -29 -29 -29 -29 -29 -29 -29 -29 -29 -29 -29 -29 -29 -30 -30 -30 -30 -31
28 28 28 28 28 28 29 29 29 29 29 30 30 30 30 30 30 30 30 30 30 30 30 30 30 30 30 30 30 30 30 30 30 30 30 30 30 30 30 30 30 30 30 30 30 30 30 30 29 29 28 28 28 27 27 27 27 26 26 26 25 25 25 25 24 24 23 23 23 23 23 22 22 22 22 21 21 21 21 21 20 20 20 20 19 19 19 18 18 17 16 16 15 15 14 14 13 12 12 11 11 10 10 9 9 9 8 7 7 6 6 5 5 5 4 3 3 2 2 1 1 1 1 1 1 1 2 2 2 2 3 3 3 3 3 4 4 4 4 4 4 4 4 4 4 4 3 3 3 3 3 3 3 3 3 3 3 3 3 2 2 2 2 2 2 2 2 2 2 2 2 2 2 2 2 2 1 1 1 1 1 1 1 1 1 1 1 1 1 1 1 1 0 0 0 0 0 0 0 0 0 0 0 0 0 0 0 0 0 0 0 -1 -1 -1 0 0 0 0 -2 -2 -2 -2 -1 0 0 0 0 0 0 -1 -4 -6 -6 -7 -8 -9 -10 -11 -11 -12 -13 -14 -14 -15 -16 -16 -17 -18 -18 -18 -18 -19 -19 -19 -19 -19 -19 -19 -19 -20 -20 -20 -20 -20 -20 -20 -20 -20 -20 -20 -19 -20 -20 -20 -20 -20 -20 -20 -20 -20 -20 -20 -20 -21 -21 -21 -21 -21 -22 -22 -22 -23 -23 -23 -23 -23 -22 -22 -22 -22 -22 -22 -22 -22 -22 -23 -22 -22 -22 -22 -22 -22 -23 -23 -23 -23 -22 -22 -22 -22 -22 -22 -22 -22 -22 -22 -22 -22 -22 -22 -22 -22 -22 -22 -22 -22 -22 -22 -23 -23 -23 -23 -23 -23 -23 -23 -22 -22 -22 -22 -22 -22 -22 -22 -21 -21 -21 -21 -22 -21 -21 -21 -20 -20 -20 -20 -20 -20 -20 -20 -20 -20 -20 -20 -19 -20 -19 -18 -18 -18 -18 -18 -18 -18 -18 -18 -18 -17 -18 -19 -20 -20 -20 -21 -21 -22 -22 -22 -22 -23 -23 -23 -23 -22 -22 -22 -22 -22 -22 -23 -23 -23 -23 -23 -23 -23 -23 -24 -24 -24 -24 -24 -24 -23 -23 -23 -23 -23 -23 -24 -24 -24 -24 -24 -24 -24 -24 -24 -24 -24 -25 -25 -25 -25 -25 -25 -24 -24 -24 -25 -25 -25 -25 -25 -25 -25 -25 -25 -25 -25 -25 -25 -25 -24 -24 -24 -24 -24 -25 -24 -24 -24 -24 -24 -24 -24 -24 -24 -24 -24 -24 -24 -24 -25 -25 -25 -25 -25 -26 -26 -26 -26 -26 -25 -25 -25 -25 -25 -26 -26 -26 -27 -27 -27 -27 -28 -28 -28 -28 -28 -28 -28 -28 -28 -27 -27 -27 -28 -28 -28 -27 -28 -28 -28 -28 -28 -28 -28 -28 -28 -27 -27 -27 -27 -27 -27 -27 -27 -27 -27 -27 -27 -27 -27 -27 -27 -27 -26 -26 -26 -27 -27 -27 -27 -28 -28 -28 -28 -28 -28 -28 -28 -28 -29 -28 -28 -28 -28 -28 -28 -28 -28 -28 -28 -28 -28 -28 -28 -29 -29 -29 -29 -30 -30 -30 -30 -30 -30 -30 -31 -31 -31 -31 -31 -31 -31 -30 -30 -30 -30 -30 -30 -30 -31 -31 -31 -31 -31 -31 -31 -31 -31 -31 -31 -31 -31 -31 -31 -31 -31 -31 -31 -31 -31 -31 -31 -31 -31 -31 -31 -31 -31 -31 -31 -31 -31 -31 -31 -31 -30 -30 -30 -30 -30 -30 -30 -30 -30 -30 -30 -30 -30 -30 -30 -30 -30 -29 -30 -29 -29 -29 -29 -29 -29 -29 -29 -28 -29 -29 -29 -29 -29 -29 -29 -29 -29 -30 -30 -30 -31 -32
28 28 28 28 28 28 28 29 29 29 29 30 30 30 30 30 30 30 30 30 30 30 30 30 30 30 30 30 30 30 30 30 30 30 30 30 30 30 30 30 30 30 30 30 30 30 30 30 29 29 28 28 28 27 27 27 27 26 26 26 25 25 25 25 24 24 23 23 23 23 23 23 22 22 22 22 21 21 21 20 20 20 20 19 19 19 19 18 18 17 16 16 15 15 14 14 13 13 12 12 11 11 10 9 9 9 8 7 7 6 6 5 5 4 4 3 3 2 2 1 1 0 0 0 0 0 1 1 1 2 2 2 3 3 3 3 3 3 3 3 3 3 3 3 3 3 3 3 3 3 3 3 3 3 3 3 3 2 2 2 2 2 2 2 2 2 2 2 2 2 2 2 2 2 2 1 1 1 1 1 1 1 1 1 1 1 1 1 1 1 0 0 0 0 0 0 0 0 0 0 0 0 0 0 0 0 0 0 0 -1 -2 -1 -2 -2 0 0 -1 -2 -2 -2 -2 -2 -1 -1 0 0 0 0 0 -2 -4 -6 -7 -7 -8 -9 -10 -11 -12 -12 -13 -14 -15 -15 -16 -16 -17 -18 -18 -18 -19 -19 -19 -19 -19 -19 -19 -19 -20 -20 -20 -20 -20 -20 -20 -20 -20 -20 -20 -20 -20 -20 -20 -20 -20 -20 -20 -20 -20 -20 -20 -20 -20 -21 -21 -21 -21 -21 -22 -22 -22 -22 -23 -23 -23 -22 -22 -22 -22 -22 -22 -22 -22 -22 -22 -22 -22 -22 -22 -22 -22 -22 -22 -22 -22 -22 -22 -22 -22 -22 -22 -22 -22 -22 -22 -22 -22 -22 -22 -22 -22 -22 -22 -22 -22 -22 -22 -23 -23 -23 -23 -23 -23 -23 -23 -23 -22 -22 -22 -22 -22 -22 -22 -22 -21 -21 -21 -21 -22 -21 -21 -20 -20 -19 -19 -19 -19 -19 -19 -19 -19 -19 -19 -19 -19 -18 -18 -17 -17 -17 -18 -18 -18 -18 -19 -19 -18 -18 -19 -20 -20 -21 -21 -21 -22 -22 -22 -22 -23 -23 -23 -23 -23 -22 -22 -22 -22 -22 -22 -23 -23 -23 -23 -23 -23 -23 -24 -24 -24 -24 -24 -24 -24 -23 -23 -23 -23 -23 -24 -24 -24 -24 -24 -24 -24 -24 -24 -24 -24 -24 -24 -25 -25 -24 -24 -24 -24 -24 -24 -24 -25 -25 -25 -25 -25 -24 -25 -25 -25 -25 -24 -24 -24 -24 -24 -24 -24 -24 -24 -24 -24 -24 -24 -24 -24 -24 -24 -24 -24 -24 -24 -24 -24 -25 -25 -25 -25 -26 -26 -26 -26 -26 -26 -25 -25 -26 -26 -26 -26 -26 -26 -27 -27 -27 -27 -28 -28 -28 -28 -28 -28 -28 -28 -28 -27 -27 -27 -28 -28 -28 -28 -28 -28 -28 -28 -28 -28 -28 -28 -28 -27 -27 -27 -27 -27 -27 -27 -27 -27 -27 -27 -27 -27 -27 -27 -27 -27 -27 -27 -27 -27 -27 -27 -27 -28 -28 -28 -28 -28 -28 -28 -28 -28 -28 -28 -28 -28 -28 -28 -28 -28 -28 -28 -28 -28 -28 -28 -29 -29 -29 -29 -29 -29 -30 -30 -30 -30 -30 -30 -30 -30 -30 -30 -30 -30 -30 -30 -30 -30 -30 -30 -30 -30 -30 -30 -31 -31 -31 -31 -31 -31 -31 -31 -31 -31 -31 -31 -31 -31 -31 -31 -31 -31 -31 -31 -31 -31 -31 -31 -31 -31 -31 -31 -31 -31 -31 -30 -30 -30 -30 -30 -30 -30 -30 -30 -30 -30 -30 -30 -30 -30 -30 -29 -29 -29 -29 -29 -29 -29 -29 -29 -29 -29 -29 -29 -29 -29 -29 -29 -29 -29 -30 -30 -30 -30 -30 -31 -32 -32 -33 -34
27 27 27 28 28 28 28 28 29 29 29 29 29 30 30 30 30 30 30 30 30 30 30 30 30 30 30 30 30 30 30 30 30 30 30 30 30 30 30 30 30 30 30 30 30 30 30 29 29 29 28 28 28 27 27 27 27 26 26 26 26 25 25 25 24 24 24 23 23 23 23 23 22 22 21 21 21 21 20 20 20 20 19 19 19 19 18 18 18 17 16 16 16 15 15 14 13 13 12 12 11 11 10 9 9 9 8 7 7 6 6 5 5 4 3 3 2 2 2 1 1 0 0 0 0 0 0 1 1 1 2 2 2 2 3 3 3 3 3 3 3 3 3 3 3 3 3 3 3 3 2 2 2 2 2 2 2 2 2 2 2 2 2 2 2 2 2 2 2 2 2 2 2 2 1 1 1 1 1 1 1 1 1 1 1 1 1 1 1 0 0 0 0 0 0 0 0 0 0 0 0 0 0 0 0 0 0 0 -1 -2 -2 -2 -2 -2 -1 -2 -2 -2 -2 -2 -2 -2 -1 -1 0 0 0 0 0 -3 -5 -6 -7 -8 -9 -9 -10 -11 -12 -12 -13 -14 -15 -16 -16 -17 -17 -18 -18 -18 -19 -19 -19 -19 -19 -19 -19 -19 -20 -20 -20 -20 -20 -20 -20 -20 -19 -20 -20 -20 -20 -20 -20 -20 -20 -20 -20 -20 -20 -21 -21 -21 -21 -21 -21 -20 -21 -21 -21 -22 -22 -22 -22 -22 -22 -22 -22 -22 -22 -22 -22 -22 -22 -22 -22 -22 -22 -22 -22 -22 -22 -22 -22 -22 -22 -22 -22 -22 -22 -22 -22 -22 -22 -22 -22 -22 -22 -22 -22 -22 -22 -22 -22 -22 -22 -22 -22 -23 -23 -23 -23 -23 -23 -23 -23 -22 -22 -22 -22 -22 -22 -22 -22 -21 -21 -21 -21 -21 -22 -21 -21 -20 -20 -19 -19 -19 -19 -19 -18 -19 -18 -18 -18 -18 -17 -17 -17 -16 -16 -17 -18 -18 -18 -19 -19 -19 -19 -19 -20 -20 -21 -21 -22 -22 -22 -23 -23 -23 -23 -23 -23 -23 -22 -22 -22 -22 -22 -22 -22 -23 -23 -23 -23 -23 -23 -24 -24 -24 -24 -24 -24 -24 -24 -24 -24 -24 -24 -24 -24 -24 -24 -23 -23 -23 -24 -24 -24 -24 -24 -24 -24 -24 -24 -24 -24 -24 -24 -24 -24 -24 -24 -24 -24 -24 -24 -24 -24 -24 -24 -24 -24 -24 -24 -23 -24 -24 -24 -24 -24 -24 -24 -24 -24 -24 -24 -24 -24 -24 -24 -24 -24 -24 -25 -25 -25 -25 -26 -26 -25 -25 -26 -26 -25 -25 -26 -26 -26 -26 -26 -26 -27 -27 -27 -27 -27 -28 -28 -28 -28 -28 -28 -28 -28 -27 -27 -27 -27 -27 -28 -28 -28 -28 -28 -28 -28 -28 -28 -28 -28 -28 -27 -27 -27 -27 -27 -27 -27 -27 -27 -27 -27 -27 -27 -27 -27 -27 -27 -27 -27 -27 -27 -27 -27 -27 -28 -28 -28 -28 -28 -28 -28 -28 -28 -29 -29 -28 -28 -28 -28 -28 -28 -28 -28 -28 -28 -28 -28 -29 -29 -29 -29 -29 -29 -29 -30 -30 -30 -30 -30 -30 -30 -30 -30 -30 -30 -30 -30 -30 -30 -30 -30 -30 -30 -30 -30 -30 -30 -30 -30 -31 -31 -31 -31 -31 -31 -31 -31 -31 -31 -31 -31 -31 -31 -31 -31 -31 -31 -31 -31 -31 -31 -31 -31 -31 -31 -31 -30 -30 -30 -30 -30 -30 -30 -30 -30 -29 -29 -29 -29 -29 -29 -29 -29 -29 -29 -29 -29 -29 -29 -29 -28 -28 -28 -29 -29 -29 -29 -29 -30 -30 -30 -30 -31 -31 -31 -32 -33 -34 -35 -36 -36
27 27 27 27 27 28 28 28 28 29 29 29 29 29 30 30 30 30 30 30 30 30 30 30 30 30 30 30 30 30 30 30 30 30 30 30 30 30 30 30 30 30 30 30 30 30 30 29 29 28 28 27 27 27 27 27 26 26 26 26 26 25 25 25 24 24 24 23 23 23 23 22 22 21 21 21 21 20 20 20 20 20 19 19 19 19 18 18 18 17 17 16 16 15 15 14 14 13 12 12 11 11 10 9 9 9 8 7 7 6 6 5 5 4 3 3 2 2 1 1 0 0 -1 0 0 0 0 0 0 1 1 2 2 2 2 2 2 2 3 3 3 3 3 3 3 3 2 2 2 2 2 2 2 2 2 2 2 2 2 2 2 2 2 2 2 2 2 2 2 2 2 2 1 1 1 1 1 1 1 1 1 1 1 1 1 1 1 1 0 0 0 0 0 0 0 0 0 0 0 0 0 0 0 0 0 0 0 0 -1 -2 -2 -2 -2 -2 -2 -2 -2 -2 -2 -2 -2 -1 0 0 0 0 0 0 -1 -3 -5 -6 -7 -8 -9 -10 -10 -11 -12 -13 -14 -14 -15 -16 -16 -17 -17 -18 -18 -18 -19 -19 -19 -19 -19 -19 -19 -19 -20 -20 -20 -20 -20 -19 -19 -19 -19 -19 -20 -20 -20 -20 -19 -19 -19 -20 -20 -20 -21 -21 -22 -21 -21 -21 -21 -20 -21 -21 -22 -22 -22 -22 -22 -22 -22 -22 -22 -22 -22 -22 -22 -22 -22 -22 -22 -22 -22 -22 -22 -22 -22 -22 -22 -22 -22 -22 -22 -22 -22 -22 -22 -22 -22 -22 -22 -22 -22 -22 -22 -22 -22 -22 -22 -22 -22 -22 -22 -23 -23 -23 -23 -23 -23 -23 -22 -22 -22 -22 -22 -22 -22 -22 -21 -21 -21 -21 -21 -21 -21 -21 -20 -20 -19 -19 -18 -18 -18 -18 -18 -18 -17 -17 -17 -16 -16 -16 -16 -16 -17 -17 -18 -18 -18 -18 -19 -19 -20 -20 -20 -21 -21 -22 -22 -23 -23 -23 -23 -24 -23 -23 -23 -22 -22 -22 -22 -23 -23 -23 -23 -23 -23 -23 -23 -23 -24 -24 -24 -24 -24 -24 -24 -24 -24 -24 -24 -24 -24 -24 -24 -24 -23 -23 -23 -23 -23 -23 -23 -23 -23 -23 -23 -24 -23 -23 -23 -23 -24 -24 -24 -24 -24 -24 -24 -24 -24 -24 -24 -24 -24 -24 -24 -24 -24 -24 -24 -24 -24 -24 -24 -24 -24 -24 -24 -24 -24 -24 -24 -24 -24 -24 -24 -24 -25 -25 -25 -26 -26 -25 -25 -25 -25 -25 -25 -25 -26 -26 -26 -26 -26 -26 -27 -27 -27 -27 -28 -28 -28 -28 -28 -28 -28 -28 -28 -27 -27 -27 -27 -27 -28 -27 -28 -28 -28 -28 -28 -28 -28 -28 -28 -28 -27 -27 -28 -27 -27 -28 -27 -27 -27 -27 -27 -27 -27 -27 -27 -27 -27 -27 -27 -27 -27 -27 -28 -28 -27 -28 -28 -28 -28 -28 -28 -28 -28 -28 -28 -28 -28 -28 -28 -28 -28 -29 -29 -29 -29 -29 -29 -29 -29 -29 -29 -29 -29 -29 -29 -29 -29 -29 -29 -29 -29 -29 -29 -29 -29 -29 -29 -29 -30 -29 -29 -29 -29 -30 -30 -30 -30 -30 -30 -30 -30 -31 -31 -31 -31 -31 -31 -31 -31 -31 -31 -31 -31 -31 -31 -31 -30 -30 -30 -30 -30 -30 -30 -31 -31 -30 -30 -30 -30 -30 -30 -29 -29 -29 -29 -29 -29 -29 -29 -29 -28 -28 -28 -28 -28 -28 -28 -28 -28 -28 -28 -28 -28 -29 -29 -29 -29 -30 -30 -31 -31 -32 -32 -32 -33 -34 -36 -37 -38 -38 -39
27 27 27 27 27 27 28 28 28 28 29 29 29 29 30 30 30 30 30 30 30 30 30 30 30 30 30 30 29 29 29 30 30 30 30 30 30 30 30 30 30 30 30 30 30 30 30 29 28 28 27 27 27 27 26 26 26 26 26 25 25 25 25 25 24 24 23 23 23 22 22 22 22 21 21 21 20 20 20 20 20 19 19 19 18 18 18 18 18 17 17 16 16 15 15 14 13 12 12 12 11 11 10 9 9 8 8 7 7 6 5 5 5 4 3 3 2 2 1 1 0 0 0 0 -1 -1 0 0 0 -1 1 1 2 2 2 2 2 2 2 2 2 2 2 2 2 2 2 2 2 2 2 2 2 2 2 2 2 2 2 2 2 2 2 2 2 2 2 2 2 2 2 1 1 1 1 1 1 1 1 1 1 1 1 1 1 1 1 0 0 0 0 0 0 0 0 0 0 0 0 0 0 0 0 0 0 0 0 -1 -2 -2 -2 -2 -2 -2 -2 -2 -2 -2 -2 -2 -2 -1 0 0 0 0 0 0 -2 -4 -5 -7 -7 -8 -9 -10 -11 -11 -12 -13 -14 -15 -15 -16 -17 -17 -18 -18 -18 -19 -19 -19 -19 -19 -19 -19 -19 -19 -20 -20 -20 -20 -20 -19 -19 -19 -20 -20 -20 -19 -19 -19 -19 -19 -19 -19 -20 -20 -20 -21 -21 -21 -21 -21 -21 -21 -21 -21 -22 -22 -22 -22 -22 -22 -22 -22 -22 -22 -22 -22 -22 -22 -22 -22 -22 -22 -22 -22 -22 -22 -22 -22 -22 -22 -22 -22 -22 -22 -22 -22 -22 -22 -22 -22 -22 -22 -22 -22 -22 -22 -22 -22 -22 -22 -22 -22 -22 -23 -23 -23 -23 -23 -23 -23 -23 -22 -22 -22 -22 -22 -22 -21 -21 -21 -21 -21 -21 -21 -21 -20 -20 -19 -18 -18 -17 -17 -17 -17 -17 -17 -16 -17 -16 -15 -15 -15 -16 -17 -17 -17 -18 -18 -19 -19 -20 -20 -21 -21 -21 -21 -22 -22 -23 -23 -24 -24 -24 -24 -24 -23 -23 -22 -22 -22 -23 -23 -23 -23 -23 -23 -23 -24 -24 -24 -24 -24 -24 -24 -24 -24 -24 -24 -24 -24 -24 -24 -24 -24 -24 -23 -23 -23 -23 -23 -23 -23 -23 -22 -22 -22 -22 -22 -22 -23 -23 -23 -23 -23 -23 -24 -24 -24 -24 -24 -24 -24 -24 -24 -24 -24 -24 -24 -24 -24 -24 -24 -24 -24 -24 -24 -24 -24 -24 -24 -24 -24 -24 -24 -24 -24 -24 -25 -25 -25 -26 -26 -26 -25 -25 -25 -25 -25 -25 -25 -25 -26 -26 -26 -26 -26 -27 -27 -27 -27 -28 -28 -28 -28 -28 -28 -28 -28 -28 -27 -27 -27 -27 -27 -28 -28 -28 -28 -28 -28 -28 -28 -28 -28 -28 -28 -28 -28 -28 -28 -28 -28 -28 -28 -28 -27 -27 -28 -27 -27 -28 -28 -28 -27 -27 -27 -27 -27 -28 -27 -27 -27 -27 -28 -28 -28 -29 -28 -28 -28 -28 -28 -28 -28 -28 -28 -29 -29 -29 -29 -29 -29 -29 -29 -29 -29 -29 -29 -29 -29 -29 -29 -29 -29 -29 -29 -29 -28 -29 -29 -29 -29 -29 -29 -29 -29 -29 -29 -29 -29 -29 -29 -30 -30 -30 -30 -30 -30 -30 -30 -31 -31 -31 -31 -31 -31 -31 -31 -31 -30 -30 -31 -30 -30 -30 -30 -30 -30 -30 -31 -30 -30 -29 -29 -29 -29 -29 -29 -29 -29 -28 -28 -28 -28 -28 -28 -28 -28 -28 -28 -28 -28 -28 -28 -28 -28 -28 -28 -28 -29 -29 -30 -30 -30 -31 -32 -31 -33 -34 -34 -36 -37 -38 -40 -40 -40 -40
27 27 27 27 27 27 27 28 28 28 28 29 29 29 29 30 30 30 30 30 30 30 30 30 30 30 29 29 29 29 29 29 29 29 30 30 30 30 30 30 30 30 30 30 30 30 30 29 28 27 27 27 26 26 26 26 25 25 25 25 25 25 24 24 24 23 23 23 23 22 22 21 21 21 21 20 20 20 20 20 19 19 19 19 18 18 18 18 17 17 17 16 16 15 15 14 13 12 12 12 11 10 10 9 9 8 8 7 6 6 5 5 5 4 3 2 2 2 1 1 0 0 0 0 0 0 0 -1 0 0 -1 1 1 1 2 2 2 2 2 2 2 2 2 2 2 2 2 2 2 2 2 2 2 2 2 2 2 2 2 2 2 2 2 2 2 2 2 2 2 1 1 1 1 1 1 1 1 1 1 1 1 1 1 1 0 0 0 0 0 0 0 0 0 0 0 0 0 0 -1 0 0 0 0 0 -1 -1 -2 -2 -2 -2 -2 -2 -2 -2 -2 -2 -2 -2 -2 -2 -1 -1 0 0 0 0 0 0 -2 -4 -6 -7 -7 -8 -9 -10 -11 -12 -12 -13 -14 -15 -16 -16 -17 -17 -18 -18 -18 -19 -19 -19 -19 -19 -19 -19 -19 -19 -19 -20 -20 -20 -19 -19 -19 -20 -20 -20 -20 -19 -19 -19 -19 -19 -19 -19 -20 -20 -20 -21 -21 -21 -21 -21 -21 -22 -22 -22 -22 -22 -23 -22 -22 -22 -22 -22 -22 -22 -22 -22 -22 -22 -22 -22 -22 -22 -22 -22 -21 -21 -21 -22 -22 -22 -22 -22 -22 -22 -22 -22 -22 -22 -22 -22 -22 -22 -22 -22 -22 -22 -22 -22 -22 -22 -22 -22 -22 -23 -23 -23 -23 -23 -23 -23 -23 -23 -22 -22 -22 -22 -22 -21 -21 -20 -21 -21 -21 -21 -20 -20 -19 -18 -18 -17 -17 -16 -16 -15 -15 -16 -15 -15 -15 -15 -15 -16 -17 -18 -18 -18 -19 -19 -20 -20 -20 -21 -21 -21 -22 -22 -22 -23 -23 -23 -24 -24 -24 -24 -24 -23 -23 -23 -23 -23 -23 -23 -23 -23 -23 -23 -23 -24 -24 -24 -24 -24 -24 -23 -23 -24 -24 -24 -24 -24 -24 -24 -24 -24 -24 -23 -23 -23 -23 -23 -23 -23 -23 -22 -22 -22 -22 -22 -22 -22 -23 -23 -23 -23 -23 -23 -23 -23 -24 -24 -24 -24 -24 -24 -24 -24 -24 -24 -24 -24 -24 -24 -24 -24 -24 -24 -24 -24 -24 -24 -24 -24 -24 -24 -24 -24 -25 -25 -25 -25 -26 -26 -26 -25 -25 -25 -25 -25 -25 -25 -25 -26 -26 -26 -26 -26 -27 -27 -27 -27 -27 -28 -28 -28 -28 -28 -28 -28 -28 -27 -27 -27 -27 -27 -28 -28 -28 -28 -28 -28 -27 -28 -28 -28 -28 -28 -28 -27 -27 -27 -27 -27 -27 -27 -27 -27 -27 -27 -27 -27 -27 -27 -27 -27 -27 -27 -27 -27 -27 -27 -27 -27 -27 -27 -27 -28 -28 -28 -28 -28 -28 -28 -28 -28 -28 -28 -29 -29 -29 -29 -29 -29 -29 -29 -29 -29 -29 -29 -29 -29 -29 -29 -29 -29 -29 -29 -29 -28 -29 -29 -29 -29 -28 -28 -29 -29 -29 -29 -29 -30 -30 -30 -30 -30 -30 -30 -30 -30 -30 -30 -30 -30 -30 -30 -30 -30 -31 -30 -30 -30 -30 -30 -29 -29 -29 -29 -29 -29 -30 -30 -30 -30 -29 -29 -29 -28 -28 -28 -28 -28 -28 -28 -28 -28 -28 -28 -28 -28 -28 -28 -28 -28 -28 -28 -28 -28 -28 -28 -29 -30 -31 -32 -33 -33 -34 -35 -35 -36 -37 -37 -39 -39 -39 -40 -40 -40 -40
26 26 26 27 27 27 27 27 28 28 28 28 28 29 29 29 30 30 30 30 30 30 30 30 30 29 29 29 29 29 29 29 29 29 29 30 30 30 30 30 30 30 30 30 30 30 30 28 27 27 27 26 26 26 26 25 25 25 25 24 24 24 24 24 23 23 23 22 22 22 21 21 21 20 20 20 20 20 20 19 19 19 19 18 18 18 18 17 17 17 16 16 16 15 15 14 13 12 12 12 11 10 10 9 9 8 8 7 6 6 5 5 5 4 3 2 2 2 1 1 0 0 0 0 0 0 0 0 0 -1 -1 -1 1 1 1 1 1 2 2 2 2 2 2 2 2 2 2 2 1 1 1 1 1 1 1 2 2 2 2 2 2 2 2 2 2 2 2 2 2 1 1 1 1 1 1 1 1 1 1 1 1 1 1 0 0 0 0 0 0 0 0 0 0 0 0 0 0 -1 -1 -1 -1 -1 -1 -2 -2 -2 -2 -2 -2 -2 -1 -1 -2 -2 -2 -1 -2 -1 -1 -1 -1 0 0 0 0 0 0 -1 -3 -5 -6 -7 -8 -9 -10 -11 -11 -12 -13 -13 -14 -15 -16 -16 -17 -18 -18 -18 -19 -19 -19 -19 -20 -19 -19 -19 -19 -19 -19 -19 -20 -20 -19 -19 -20 -20 -20 -20 -20 -20 -20 -19 -19 -19 -19 -19 -20 -20 -20 -20 -21 -21 -21 -22 -22 -22 -22 -22 -22 -22 -23 -22 -22 -22 -22 -22 -22 -22 -22 -22 -22 -22 -22 -22 -22 -22 -22 -22 -21 -21 -21 -22 -22 -22 -22 -22 -22 -22 -22 -22 -22 -22 -22 -22 -22 -22 -22 -22 -22 -22 -22 -22 -22 -22 -22 -22 -22 -22 -23 -23 -23 -23 -23 -23 -23 -22 -22 -22 -22 -22 -22 -21 -21 -21 -21 -21 -21 -20 -20 -19 -18 -18 -17 -16 -16 -15 -15 -15 -15 -15 -15 -16 -16 -17 -17 -18 -18 -19 -19 -19 -20 -21 -21 -21 -21 -21 -22 -22 -22 -22 -23 -23 -23 -23 -23 -24 -24 -24 -23 -23 -23 -23 -23 -23 -23 -23 -23 -23 -23 -23 -23 -23 -23 -23 -23 -23 -23 -23 -23 -23 -23 -24 -24 -24 -24 -24 -23 -23 -23 -23 -23 -23 -23 -23 -23 -23 -23 -23 -22 -22 -22 -22 -22 -22 -23 -23 -23 -24 -24 -24 -23 -23 -24 -24 -24 -24 -24 -24 -24 -24 -24 -24 -24 -24 -24 -24 -24 -24 -24 -24 -24 -24 -24 -24 -24 -24 -24 -24 -24 -25 -25 -25 -25 -25 -26 -26 -26 -26 -25 -25 -25 -25 -25 -25 -26 -26 -26 -26 -26 -26 -27 -27 -27 -27 -27 -28 -28 -28 -28 -28 -28 -28 -28 -27 -27 -27 -27 -27 -28 -28 -28 -28 -28 -28 -28 -28 -28 -28 -27 -27 -27 -27 -27 -27 -27 -27 -27 -27 -27 -27 -27 -27 -27 -27 -27 -27 -27 -27 -27 -27 -27 -27 -27 -27 -27 -27 -27 -27 -27 -27 -27 -27 -28 -28 -28 -27 -28 -28 -28 -28 -29 -29 -29 -30 -30 -30 -29 -29 -29 -29 -29 -29 -29 -29 -29 -29 -29 -29 -29 -29 -28 -28 -28 -29 -29 -29 -29 -28 -29 -29 -30 -30 -30 -30 -30 -30 -30 -30 -30 -30 -30 -30 -30 -30 -30 -30 -30 -30 -29 -29 -29 -29 -29 -29 -29 -29 -29 -28 -28 -28 -28 -28 -29 -29 -29 -29 -28 -28 -28 -28 -27 -27 -27 -27 -27 -27 -27 -27 -27 -27 -27 -27 -27 -27 -28 -28 -28 -28 -28 -28 -28 -28 -30 -32 -34 -34 -35 -37 -38 -39 -39 -40 -39 -39 -39 -39 -40 -40 -40 -40 -40
26 26 26 26 27 27 27 27 27 28 28 28 28 29 29 29 29 30 30 30 30 30 30 30 30 29 29 29 29 29 29 29 29 29 29 29 29 30 30 30 30 30 30 30 30 30 29 27 27 26 26 26 26 25 25 25 24 24 24 24 24 24 24 23 23 23 22 22 22 21 21 21 20 20 20 20 20 20 20 19 19 19 18 18 18 18 18 17 17 17 16 16 16 15 15 14 13 12 12 12 11 10 10 9 9 8 8 7 6 6 5 5 5 4 3 3 2 2 1 1 0 0 0 0 0 0 0 0 0 0 0 -1 -1 0 1 1 1 1 1 1 1 1 1 1 1 1 1 1 1 1 1 1 1 1 1 1 2 2 2 2 2 2 2 2 2 1 1 1 1 1 1 1 1 1 1 1 1 1 1 1 1 0 0 0 0 0 0 0 0 0 0 0 0 0 0 0 0 -1 -1 -1 -2 -2 -2 -2 -2 -2 -2 -2 -2 -2 -1 -1 -1 -1 -2 -1 -1 -1 -1 -1 -1 -1 0 0 0 0 0 -1 -4 -6 -6 -7 -8 -9 -10 -11 -11 -12 -13 -14 -15 -15 -16 -17 -17 -18 -18 -18 -19 -19 -19 -20 -20 -19 -19 -19 -19 -19 -19 -19 -20 -20 -20 -20 -20 -20 -20 -20 -21 -20 -20 -20 -19 -19 -19 -19 -20 -20 -20 -20 -21 -21 -22 -22 -22 -22 -22 -22 -22 -22 -23 -22 -22 -22 -22 -22 -22 -22 -22 -22 -22 -22 -22 -22 -22 -22 -22 -21 -21 -21 -21 -22 -22 -22 -22 -22 -22 -22 -22 -22 -22 -22 -22 -22 -22 -22 -22 -22 -22 -22 -22 -22 -22 -22 -22 -22 -22 -22 -23 -23 -23 -23 -23 -23 -22 -22 -22 -22 -22 -21 -21 -21 -21 -21 -21 -21 -21 -20 -19 -19 -18 -17 -16 -16 -16 -15 -15 -16 -16 -16 -16 -16 -17 -17 -18 -19 -19 -20 -20 -20 -20 -21 -21 -21 -21 -22 -22 -22 -23 -23 -23 -23 -23 -23 -23 -23 -24 -23 -23 -23 -23 -23 -23 -23 -23 -23 -23 -23 -23 -23 -23 -23 -23 -23 -23 -23 -23 -23 -23 -23 -23 -23 -24 -24 -24 -23 -23 -23 -23 -23 -23 -23 -23 -23 -23 -23 -23 -23 -23 -23 -23 -23 -23 -23 -23 -23 -24 -24 -24 -24 -24 -24 -24 -24 -24 -24 -24 -24 -24 -24 -24 -24 -24 -24 -24 -24 -24 -25 -25 -25 -25 -25 -24 -24 -24 -24 -24 -24 -25 -25 -25 -25 -25 -25 -26 -26 -26 -26 -26 -26 -26 -26 -26 -26 -26 -26 -26 -26 -26 -27 -27 -27 -27 -27 -27 -28 -28 -28 -28 -28 -28 -28 -28 -28 -27 -27 -27 -28 -28 -28 -28 -28 -28 -28 -28 -28 -28 -27 -27 -27 -27 -27 -27 -27 -27 -27 -27 -27 -27 -27 -27 -26 -26 -26 -27 -27 -26 -26 -26 -26 -26 -27 -27 -27 -27 -27 -27 -27 -27 -27 -27 -27 -27 -27 -27 -27 -27 -28 -28 -28 -29 -29 -30 -30 -30 -30 -30 -29 -29 -29 -29 -29 -29 -29 -29 -29 -29 -29 -29 -29 -28 -28 -28 -28 -29 -29 -29 -29 -29 -30 -30 -30 -30 -30 -30 -30 -30 -30 -30 -30 -30 -29 -30 -30 -30 -30 -29 -29 -29 -29 -29 -29 -28 -28 -28 -28 -28 -27 -27 -27 -27 -27 -28 -28 -28 -27 -27 -27 -27 -27 -27 -26 -27 -27 -27 -27 -27 -27 -27 -27 -27 -27 -27 -27 -28 -28 -28 -28 -28 -29 -29 -30 -31 -35 -36 -37 -38 -39 -39 -40 -40 -40 -40 -40 -40 -40 -40 -40 -40 -40 -40
25 25 26 26 26 27 27 27 27 27 28 28 28 28 29 29 29 29 30 30 30 30 30 30 30 29 29 29 29 29 29 29 29 29 29 29 29 29 30 30 30 30 30 30 30 30 29 27 27 26 26 25 25 25 25 24 24 24 24 23 23 23 23 23 22 22 22 22 21 21 21 21 20 20 20 20 20 19 19 19 19 18 18 18 18 18 17 17 17 17 16 16 16 15 15 14 13 12 12 12 11 10 10 9 9 8 8 7 6 6 5 5 5 4 3 3 2 2 1 1 1 0 0 0 0 0 0 0 0 0 0 0 0 -1 -1 0 0 1 1 1 1 1 1 1 1 1 1 1 1 1 1 1 0 0 1 1 1 1 2 2 2 2 2 2 1 1 1 1 1 1 1 1 1 1 1 1 1 1 1 1 0 0 0 0 0 0 0 0 0 0 0 0 0 -1 -1 -1 -1 -1 -1 -1 -2 -2 -2 -2 -2 -2 -2 -2 -2 -1 -1 -1 -1 -2 -1 -1 -1 -1 -1 -1 0 0 0 0 0 0 0 -3 -5 -6 -7 -7 -8 -9 -10 -11 -12 -12 -13 -14 -15 -16 -16 -17 -17 -18 -18 -18 -19 -19 -19 -20 -20 -19 -19 -19 -19 -19 -19 -19 -20 -20 -20 -20 -20 -20 -20 -20 -21 -20 -20 -20 -19 -19 -19 -19 -20 -20 -20 -20 -21 -21 -22 -22 -23 -22 -22 -22 -22 -22 -22 -22 -22 -22 -22 -22 -22 -22 -22 -22 -22 -22 -22 -22 -22 -22 -21 -21 -21 -22 -21 -22 -22 -22 -22 -22 -22 -22 -22 -22 -22 -22 -22 -22 -22 -22 -22 -22 -22 -22 -22 -22 -22 -22 -22 -22 -22 -22 -22 -22 -22 -22 -22 -22 -22 -22 -22 -22 -21 -21 -21 -21 -21 -21 -21 -21 -20 -20 -19 -18 -17 -16 -16 -16 -15 -16 -16 -16 -16 -16 -17 -17 -17 -18 -19 -19 -20 -20 -20 -20 -21 -21 -21 -21 -21 -22 -22 -22 -23 -23 -23 -23 -23 -23 -23 -23 -23 -23 -23 -23 -23 -23 -23 -23 -23 -23 -23 -23 -23 -23 -23 -23 -23 -23 -23 -23 -23 -23 -23 -23 -23 -23 -24 -24 -24 -23 -23 -23 -22 -23 -23 -23 -23 -23 -23 -23 -23 -23 -23 -23 -23 -23 -23 -23 -24 -24 -24 -24 -24 -24 -24 -24 -24 -24 -24 -24 -24 -24 -24 -24 -24 -24 -25 -24 -24 -24 -25 -25 -25 -25 -25 -25 -25 -24 -24 -24 -24 -25 -25 -25 -25 -25 -25 -25 -26 -26 -26 -26 -26 -26 -26 -26 -26 -26 -26 -26 -26 -26 -27 -27 -27 -27 -27 -27 -28 -28 -28 -28 -28 -28 -28 -28 -28 -28 -27 -27 -28 -28 -28 -28 -27 -27 -28 -28 -28 -28 -28 -27 -27 -27 -27 -27 -26 -27 -27 -27 -27 -27 -27 -26 -26 -26 -26 -26 -27 -27 -26 -27 -27 -27 -27 -27 -27 -27 -27 -26 -26 -26 -27 -26 -26 -26 -26 -26 -26 -27 -27 -28 -28 -28 -29 -30 -30 -30 -30 -30 -30 -29 -29 -29 -29 -29 -29 -29 -28 -28 -28 -28 -28 -29 -28 -28 -28 -28 -29 -29 -30 -30 -30 -30 -31 -31 -31 -31 -31 -30 -30 -30 -30 -30 -30 -30 -30 -30 -30 -29 -29 -29 -29 -28 -28 -28 -27 -27 -27 -27 -27 -27 -27 -26 -27 -26 -27 -26 -26 -26 -26 -26 -27 -26 -26 -26 -27 -27 -27 -28 -27 -28 -28 -27 -28 -28 -28 -29 -29 -28 -30 -30 -30 -32 -33 -34 -36 -37 -38 -38 -39 -40 -40 -40 -40 -40 -40 -40 -40 -40 -40 -40 -40 -39 -40
25 25 25 26 26 26 27 27 27 27 27 27 28 28 28 29 29 29 29 30 30 30 30 30 29 28 28 28 28 28 28 28 29 29 29 29 29 29 29 29 30 30 30 30 30 30 29 27 26 26 25 25 25 25 24 24 24 23 23 23 23 23 23 22 22 22 21 21 21 21 20 20 20 20 20 20 19 19 19 19 18 18 18 18 18 17 17 17 17 16 16 16 15 15 14 14 13 12 12 11 11 10 10 9 9 8 8 7 7 6 5 5 5 4 3 3 2 2 1 1 1 0 0 0 0 0 0 0 0 0 0 0 0 0 -1 -1 -1 -1 0 1 1 1 1 1 1 1 1 1 1 0 0 0 0 0 0 1 1 1 1 1 1 1 1 1 1 1 1 1 1 1 1 1 1 1 1 1 1 1 1 0 0 0 0 0 0 0 0 0 0 0 0 0 0 -1 -1 -1 -1 -1 -1 -1 -1 -2 -2 -2 -2 -2 -2 -2 -2 -1 -1 -1 -1 -1 -1 -1 -1 -1 0 0 0 0 0 0 0 0 0 -3 -5 -6 -6 -8 -9 -9 -10 -11 -12 -13 -13 -14 -15 -16 -16 -17 -17 -18 -18 -18 -19 -19 -19 -19 -19 -19 -19 -19 -19 -19 -19 -20 -20 -20 -20 -20 -20 -20 -20 -20 -20 -20 -20 -20 -20 -19 -19 -20 -20 -20 -21 -21 -21 -21 -21 -22 -22 -22 -22 -22 -22 -22 -22 -22 -22 -22 -22 -22 -22 -22 -22 -22 -22 -22 -22 -21 -21 -21 -21 -21 -21 -21 -21 -21 -22 -22 -22 -22 -22 -22 -22 -22 -22 -22 -22 -22 -22 -22 -22 -22 -22 -22 -22 -22 -22 -22 -22 -22 -22 -22 -22 -22 -22 -22 -22 -22 -22 -22 -22 -21 -21 -21 -21 -21 -21 -21 -21 -21 -20 -19 -19 -18 -17 -16 -16 -15 -16 -16 -16 -17 -17 -17 -17 -18 -18 -18 -19 -19 -20 -20 -20 -20 -20 -21 -21 -21 -22 -22 -22 -23 -23 -23 -23 -23 -23 -23 -23 -23 -23 -23 -23 -23 -23 -23 -23 -23 -23 -23 -23 -23 -23 -23 -23 -23 -23 -23 -23 -23 -23 -23 -23 -23 -23 -23 -23 -23 -23 -23 -23 -23 -22 -23 -23 -23 -23 -23 -23 -23 -23 -23 -23 -23 -23 -23 -23 -24 -24 -24 -24 -24 -24 -24 -24 -24 -24 -24 -24 -24 -24 -24 -24 -24 -24 -24 -24 -24 -24 -25 -25 -25 -25 -25 -25 -25 -25 -24 -24 -24 -25 -25 -25 -25 -25 -25 -25 -26 -26 -26 -26 -26 -26 -26 -26 -26 -26 -26 -26 -26 -26 -26 -27 -27 -27 -27 -27 -27 -28 -28 -28 -28 -28 -28 -28 -28 -28 -28 -28 -28 -28 -28 -28 -28 -28 -28 -28 -28 -27 -27 -27 -27 -27 -27 -27 -27 -27 -27 -27 -27 -27 -27 -27 -26 -26 -26 -26 -26 -27 -27 -27 -27 -27 -27 -27 -27 -27 -27 -26 -26 -26 -27 -27 -27 -27 -26 -26 -27 -27 -27 -28 -28 -29 -29 -30 -30 -31 -31 -30 -30 -29 -29 -29 -29 -29 -29 -28 -28 -28 -28 -28 -27 -28 -28 -28 -28 -28 -29 -29 -30 -31 -31 -31 -31 -32 -32 -32 -32 -31 -31 -31 -30 -30 -30 -30 -30 -30 -30 -30 -30 -29 -29 -29 -28 -28 -28 -27 -27 -27 -27 -27 -27 -27 -27 -28 -27 -26 -27 -27 -27 -27 -27 -28 -28 -27 -28 -28 -28 -29 -30 -30 -30 -30 -30 -31 -31 -31 -32 -32 -32 -33 -34 -35 -35 -37 -36 -37 -38 -39 -39 -39 -40 -40 -40 -41 -40 -40 -40 -40 -40 -40 -40 -40 -40 -40
25 25 25 25 26 26 26 27 27 27 27 27 27 28 28 28 29 29 29 29 30 30 30 30 29 28 28 28 28 28 28 28 28 28 29 29 29 29 29 29 29 29 30 30 30 30 27 26 25 25 25 24 24 24 24 23 23 23 23 23 23 23 22 22 22 21 21 21 21 20 20 20 20 20 19 19 19 19 19 19 18 18 18 18 18 17 17 17 17 16 16 16 15 15 14 14 13 12 12 11 11 10 10 9 9 8 8 7 7 6 6 5 5 4 3 3 2 2 2 1 1 1 0 0 0 0 0 0 0 0 0 0 0 0 0 0 -1 -1 0 0 0 0 0 0 0 0 0 0 0 0 0 0 0 0 0 1 1 1 1 1 1 1 1 1 1 1 1 1 1 1 1 1 1 1 1 1 1 1 0 0 0 0 0 0 0 0 0 0 0 0 -1 -1 -1 -1 -1 -1 -1 -1 -1 -1 -1 -1 -2 -2 -2 -2 -2 -2 -2 -2 -1 -1 -1 -1 -1 -1 -1 0 0 0 0 0 0 0 0 0 -1 -4 -6 -6 -7 -8 -9 -10 -10 -11 -12 -13 -14 -14 -15 -16 -16 -17 -17 -18 -18 -18 -19 -19 -19 -19 -19 -19 -19 -19 -19 -19 -20 -20 -20 -20 -20 -20 -20 -20 -20 -20 -20 -20 -20 -20 -20 -20 -20 -20 -20 -21 -21 -21 -21 -21 -21 -21 -22 -22 -22 -22 -22 -22 -22 -22 -22 -22 -22 -22 -22 -22 -22 -22 -21 -21 -21 -21 -21 -21 -21 -21 -21 -21 -21 -21 -21 -22 -22 -22 -22 -22 -22 -22 -22 -22 -22 -22 -22 -22 -22 -23 -22 -22 -22 -22 -22 -22 -22 -22 -22 -22 -22 -22 -22 -22 -22 -22 -22 -21 -21 -21 -21 -21 -21 -21 -21 -21 -21 -20 -20 -19 -18 -17 -17 -16 -16 -16 -16 -17 -17 -17 -17 -17 -18 -18 -18 -19 -19 -19 -20 -20 -20 -21 -21 -21 -21 -21 -22 -22 -23 -23 -23 -23 -23 -23 -23 -23 -23 -23 -23 -23 -23 -23 -23 -23 -23 -23 -23 -23 -22 -23 -23 -23 -23 -23 -23 -23 -23 -23 -23 -23 -23 -23 -23 -23 -23 -23 -23 -23 -23 -22 -22 -23 -23 -23 -23 -23 -23 -23 -23 -23 -23 -23 -23 -23 -24 -24 -24 -24 -24 -24 -24 -24 -24 -24 -24 -24 -24 -24 -24 -24 -24 -24 -24 -24 -24 -24 -25 -25 -25 -25 -25 -25 -25 -25 -25 -24 -24 -24 -24 -25 -25 -25 -25 -25 -25 -25 -26 -26 -26 -26 -26 -26 -26 -26 -26 -26 -26 -26 -26 -27 -27 -27 -27 -27 -27 -28 -28 -28 -28 -28 -28 -28 -28 -28 -28 -28 -28 -28 -28 -28 -28 -28 -28 -28 -28 -27 -27 -27 -27 -27 -27 -27 -27 -27 -27 -27 -27 -27 -27 -27 -26 -26 -26 -26 -26 -26 -27 -27 -27 -27 -27 -27 -27 -26 -27 -26 -26 -26 -26 -27 -27 -27 -27 -27 -27 -27 -28 -28 -29 -29 -30 -30 -30 -30 -30 -30 -30 -29 -29 -29 -29 -29 -29 -28 -28 -28 -28 -27 -27 -27 -28 -28 -28 -29 -30 -30 -30 -31 -32 -32 -33 -32 -32 -33 -34 -33 -32 -32 -32 -31 -31 -31 -30 -30 -31 -31 -30 -30 -30 -29 -29 -28 -28 -28 -28 -28 -27 -28 -28 -27 -28 -29 -30 -29 -26 -27 -28 -29 -29 -30 -30 -30 -30 -31 -32 -32 -32 -33 -34 -33 -34 -34 -34 -35 -35 -35 -35 -36 -37 -37 -37 -37 -38 -38 -38 -39 -39 -40 -40 -40 -40 -40 -40 -40 -40 -39 -40 -40 -40 -40 -40 -40 -40
24 24 25 25 25 26 26 26 26 27 27 27 27 27 28 28 28 28 29 29 29 29 30 29 28 27 27 27 27 27 28 28 28 28 28 28 28 28 29 29 29 29 29 29 29 29 27 25 25 25 24 24 24 24 23 23 23 23 23 23 22 22 22 21 21 21 21 20 20 20 20 20 20 19 19 19 19 19 19 18 18 18 18 18 17 17 17 17 17 16 16 16 15 15 14 14 13 12 12 11 11 10 10 9 9 8 8 7 7 6 6 5 5 4 4 3 2 2 2 1 1 1 0 0 0 0 0 0 0 0 0 0 0 0 0 0 -1 -1 -1 0 0 0 0 0 0 0 0 0 0 0 0 0 0 0 0 0 1 0 1 1 1 1 1 1 1 1 1 1 1 1 1 1 1 1 1 0 0 0 0 0 0 0 0 0 0 0 0 0 0 0 -1 -1 -1 -1 -1 -1 -1 -1 -1 -1 -2 -2 -2 -2 -2 -2 -2 -2 -2 -2 -1 -1 -1 -1 -1 -1 0 0 0 0 0 0 0 0 0 0 -2 -4 -6 -6 -8 -9 -10 -10 -11 -12 -12 -13 -14 -15 -15 -16 -16 -17 -17 -18 -18 -18 -19 -19 -19 -19 -19 -19 -19 -19 -19 -19 -20 -20 -20 -20 -20 -20 -20 -20 -20 -20 -20 -20 -20 -20 -20 -20 -20 -21 -21 -21 -21 -21 -21 -21 -21 -21 -22 -22 -22 -22 -22 -22 -22 -22 -22 -22 -22 -22 -22 -21 -21 -21 -21 -21 -21 -21 -21 -21 -21 -21 -21 -21 -21 -21 -21 -21 -22 -22 -22 -22 -22 -22 -22 -22 -22 -22 -22 -22 -22 -22 -22 -22 -22 -22 -22 -22 -22 -22 -22 -22 -22 -22 -22 -22 -22 -22 -21 -21 -21 -21 -21 -21 -21 -21 -21 -21 -20 -20 -19 -19 -18 -17 -17 -17 -17 -17 -17 -18 -17 -17 -18 -18 -18 -19 -19 -19 -19 -19 -20 -20 -21 -21 -22 -21 -21 -22 -22 -22 -23 -23 -23 -23 -23 -23 -23 -23 -23 -23 -23 -23 -23 -23 -23 -23 -23 -23 -23 -22 -22 -22 -23 -23 -23 -23 -23 -24 -24 -23 -23 -23 -23 -23 -23 -23 -23 -23 -23 -23 -23 -23 -23 -23 -23 -23 -23 -23 -23 -23 -24 -23 -23 -23 -23 -24 -24 -24 -24 -24 -24 -24 -24 -24 -24 -24 -24 -24 -24 -25 -25 -25 -25 -25 -25 -25 -25 -25 -25 -25 -25 -25 -25 -25 -25 -25 -25 -25 -24 -24 -24 -24 -25 -25 -25 -25 -25 -25 -26 -26 -26 -25 -26 -26 -26 -26 -26 -26 -26 -26 -27 -27 -27 -27 -27 -27 -28 -28 -28 -28 -27 -28 -28 -27 -27 -27 -27 -27 -28 -28 -28 -28 -28 -28 -28 -28 -28 -27 -27 -27 -27 -27 -26 -27 -27 -27 -27 -27 -27 -27 -27 -26 -26 -26 -26 -26 -26 -26 -26 -26 -26 -26 -26 -26 -26 -26 -26 -26 -26 -26 -26 -27 -27 -27 -28 -28 -27 -28 -29 -29 -30 -30 -30 -30 -30 -30 -30 -30 -29 -29 -29 -28 -29 -29 -28 -28 -28 -28 -27 -28 -28 -28 -28 -29 -29 -30 -31 -32 -32 -32 -33 -33 -33 -32 -33 -33 -33 -33 -33 -32 -32 -32 -32 -32 -31 -31 -31 -31 -31 -31 -30 -30 -30 -30 -30 -29 -29 -29 -29 -30 -30 -30 -30 -30 -31 -31 -29 -30 -31 -32 -32 -33 -32 -33 -34 -34 -35 -35 -36 -36 -37 -36 -36 -37 -37 -38 -37 -37 -37 -37 -38 -38 -38 -38 -39 -39 -39 -40 -40 -40 -40 -40 -40 -40 -40 -40 -40 -40 -40 -40 -40 -40 -41 -41 -41
24 24 24 25 25 25 26 26 26 26 27 27 27 27 27 28 28 28 28 29 29 29 29 29 28 27 27 27 27 27 27 27 28 28 28 28 28 28 28 28 28 28 28 28 29 29 26 25 24 24 24 23 23 23 23 23 22 22 22 22 22 22 21 21 21 20 20 20 20 20 20 20 19 19 19 19 19 19 18 18 18 18 18 17 17 17 17 17 16 16 16 16 15 15 14 14 13 12 12 12 11 10 10 9 9 8 8 7 7 6 6 5 5 4 4 3 3 2 2 1 1 1 0 0 0 0 0 0 0 0 0 0 0 0 0 0 -1 -1 -1 -1 -1 0 0 0 0 0 0 0 -1 0 0 0 0 -1 -1 -1 -1 -1 -1 1 1 1 1 1 1 1 1 1 1 1 1 1 1 1 0 0 0 0 0 0 0 0 0 0 0 0 0 0 0 -1 -1 -1 0 0 -1 -1 -1 -1 -1 -2 -2 -2 -2 -2 -2 -2 -2 -2 -2 -2 -1 -1 -1 -1 -1 -1 0 0 0 -1 0 0 0 0 0 0 -2 -4 -6 -7 -8 -9 -10 -10 -11 -12 -13 -14 -14 -15 -16 -16 -17 -17 -17 -18 -18 -18 -19 -19 -19 -19 -19 -19 -19 -19 -19 -19 -20 -20 -20 -20 -20 -20 -20 -20 -20 -19 -20 -20 -20 -20 -21 -21 -21 -21 -21 -21 -21 -21 -21 -21 -21 -21 -21 -22 -22 -22 -22 -22 -22 -22 -22 -22 -22 -21 -21 -21 -21 -21 -21 -21 -21 -21 -21 -21 -21 -20 -20 -21 -21 -21 -21 -21 -22 -22 -22 -22 -22 -22 -22 -22 -22 -22 -22 -22 -22 -22 -22 -22 -22 -22 -22 -22 -22 -22 -22 -21 -21 -21 -22 -22 -22 -22 -21 -21 -21 -21 -20 -20 -21 -21 -21 -20 -20 -19 -19 -18 -18 -18 -17 -17 -17 -17 -18 -18 -18 -18 -18 -18 -18 -19 -19 -19 -19 -19 -20 -20 -21 -21 -21 -21 -22 -22 -22 -23 -23 -23 -23 -23 -23 -23 -23 -23 -24 -23 -23 -23 -23 -23 -23 -23 -23 -23 -23 -22 -22 -23 -23 -23 -23 -23 -23 -24 -24 -24 -23 -23 -23 -23 -23 -23 -23 -23 -23 -23 -23 -23 -23 -23 -23 -24 -23 -23 -23 -24 -24 -24 -23 -23 -23 -24 -24 -24 -24 -24 -24 -24 -24 -24 -24 -24 -24 -24 -25 -25 -25 -25 -25 -25 -25 -25 -25 -25 -25 -25 -25 -25 -25 -25 -25 -25 -24 -25 -24 -24 -24 -24 -25 -25 -25 -25 -25 -26 -26 -26 -25 -25 -26 -26 -26 -26 -26 -27 -27 -26 -27 -27 -27 -26 -27 -28 -28 -28 -28 -28 -28 -28 -27 -27 -27 -27 -27 -27 -27 -28 -28 -28 -28 -27 -27 -28 -27 -27 -27 -27 -27 -27 -26 -27 -27 -27 -27 -27 -27 -27 -27 -26 -27 -26 -26 -26 -26 -26 -26 -26 -26 -26 -26 -26 -26 -26 -26 -26 -26 -26 -26 -27 -27 -28 -28 -29 -29 -30 -30 -30 -30 -30 -30 -30 -30 -29 -29 -29 -29 -28 -28 -28 -29 -29 -28 -29 -28 -28 -28 -28 -28 -29 -29 -30 -31 -31 -33 -33 -34 -33 -33 -33 -33 -33 -32 -33 -33 -33 -33 -33 -33 -33 -33 -32 -32 -32 -32 -32 -32 -31 -30 -29 -30 -31 -31 -31 -31 -31 -31 -32 -32 -32 -32 -32 -32 -32 -32 -32 -33 -34 -34 -34 -34 -36 -36 -36 -37 -38 -38 -38 -38 -38 -38 -38 -39 -39 -38 -38 -38 -38 -38 -38 -38 -39 -39 -40 -40 -40 -40 -40 -40 -39 -40 -40 -40 -40 -40 -40 -40 -40 -40 -41 -41 -41 -41
24 24 24 24 25 25 25 25 26 26 26 26 27 27 27 27 27 28 28 28 28 28 29 28 27 26 26 27 27 27 27 27 27 27 27 28 28 28 28 28 28 28 28 28 28 28 25 24 24 24 23 23 23 23 22 22 22 22 22 22 21 21 21 20 20 20 20 20 20 20 19 19 19 19 19 19 18 18 18 18 18 18 17 17 17 17 17 17 16 16 16 16 15 15 14 14 13 12 12 12 11 11 10 10 9 8 8 7 7 6 6 5 5 4 4 3 3 2 2 1 1 1 1 0 0 0 0 0 0 0 0 0 0 0 0 0 0 -1 -1 -1 -1 -1 -1 -1 -1 -1 -1 -1 -1 -1 -1 -1 -1 -1 -1 -1 -1 -1 -1 1 1 1 1 1 1 1 1 1 1 1 1 0 0 0 0 0 0 0 0 0 0 0 0 0 0 0 0 0 0 -1 -1 0 0 0 0 -1 -1 -2 -2 -2 -2 -2 -2 -2 -2 -2 -2 -2 -2 -1 -1 -1 -1 0 0 0 0 0 -1 -1 0 0 0 0 0 0 -3 -5 -6 -7 -8 -9 -10 -10 -11 -12 -13 -14 -15 -15 -16 -16 -17 -17 -17 -18 -18 -19 -19 -19 -19 -19 -19 -19 -19 -19 -19 -19 -20 -20 -20 -19 -19 -20 -20 -20 -20 -20 -20 -20 -20 -21 -21 -22 -22 -22 -21 -21 -21 -21 -21 -21 -21 -21 -21 -21 -22 -22 -22 -22 -22 -22 -22 -22 -22 -21 -21 -21 -21 -21 -21 -21 -21 -21 -21 -20 -20 -20 -20 -20 -21 -21 -21 -21 -21 -21 -22 -22 -22 -22 -22 -22 -22 -22 -22 -22 -22 -22 -22 -22 -22 -22 -22 -22 -22 -22 -21 -21 -21 -21 -21 -21 -22 -22 -21 -21 -21 -20 -20 -19 -20 -21 -20 -20 -20 -19 -19 -18 -18 -18 -18 -17 -17 -17 -18 -18 -18 -18 -17 -18 -18 -19 -19 -19 -19 -19 -19 -20 -21 -21 -21 -22 -22 -22 -22 -22 -23 -23 -23 -23 -23 -23 -23 -23 -23 -23 -23 -23 -23 -23 -23 -23 -23 -22 -22 -22 -22 -23 -23 -23 -23 -23 -23 -23 -23 -23 -23 -23 -23 -23 -23 -23 -23 -23 -23 -23 -23 -23 -23 -23 -23 -24 -23 -23 -23 -23 -24 -23 -23 -23 -23 -23 -23 -23 -23 -24 -24 -24 -24 -23 -24 -24 -24 -24 -24 -25 -25 -25 -25 -25 -25 -24 -25 -25 -25 -25 -25 -25 -25 -25 -24 -24 -24 -24 -24 -24 -24 -24 -25 -25 -25 -25 -25 -26 -26 -26 -26 -25 -26 -26 -26 -26 -26 -27 -27 -27 -27 -27 -27 -27 -27 -27 -27 -27 -28 -28 -27 -27 -27 -27 -27 -27 -27 -27 -27 -27 -27 -27 -27 -27 -27 -27 -27 -27 -27 -27 -27 -27 -26 -26 -27 -27 -27 -27 -27 -27 -26 -26 -26 -26 -26 -26 -26 -26 -26 -26 -26 -26 -26 -26 -26 -26 -26 -26 -26 -26 -27 -27 -28 -28 -28 -29 -29 -30 -30 -30 -30 -30 -30 -30 -30 -29 -28 -29 -29 -29 -29 -29 -29 -29 -29 -29 -29 -29 -28 -29 -29 -30 -30 -31 -31 -32 -33 -33 -33 -33 -33 -33 -33 -33 -33 -33 -33 -33 -33 -33 -33 -33 -33 -33 -32 -32 -32 -32 -32 -32 -31 -31 -32 -32 -32 -32 -32 -32 -32 -32 -32 -32 -33 -32 -33 -32 -33 -33 -34 -34 -35 -35 -35 -36 -36 -37 -38 -38 -38 -38 -38 -38 -38 -39 -39 -39 -38 -38 -38 -38 -38 -38 -38 -38 -39 -39 -39 -40 -40 -40 -39 -39 -39 -39 -40 -40 -40 -40 -40 -40 -40 -41 -41 -41 -41
23 24 24 24 24 25 25 25 25 26 26 26 26 27 27 27 27 27 28 28 28 28 28 28 27 26 26 26 26 27 27 27 27 27 27 27 27 27 27 27 27 27 27 27 27 27 25 24 23 23 23 23 23 22 22 22 21 21 21 21 21 21 20 20 20 20 20 19 19 19 19 19 19 19 19 18 18 18 18 18 18 17 17 17 17 17 17 17 17 16 16 16 15 15 14 14 13 12 12 12 11 11 10 10 9 8 8 7 7 7 6 6 5 4 4 3 3 2 2 1 1 1 1 0 0 0 0 0 0 0 0 0 0 0 0 0 0 0 -1 -1 -1 -1 -1 -1 -1 -1 -1 -1 -1 -1 -1 -1 -1 -1 0 0 -1 -1 1 1 1 1 1 1 1 1 1 1 1 1 0 0 0 0 0 0 0 0 0 0 0 0 0 0 0 0 0 0 0 0 0 0 0 0 0 0 0 -1 -1 -2 -2 -2 -2 -2 -2 -2 -2 -2 -1 -1 -1 -1 -1 -1 0 -1 -1 -1 -1 -1 0 0 0 0 0 0 -3 -5 -6 -7 -8 -9 -9 -11 -12 -13 -14 -15 -15 -16 -16 -17 -17 -17 -18 -18 -18 -19 -19 -19 -19 -19 -19 -19 -19 -19 -19 -19 -19 -19 -20 -20 -20 -20 -20 -20 -20 -21 -21 -21 -21 -21 -21 -22 -22 -21 -21 -21 -21 -21 -21 -21 -21 -21 -21 -21 -21 -21 -22 -22 -22 -22 -22 -22 -21 -21 -21 -21 -21 -21 -21 -21 -20 -20 -20 -20 -20 -20 -20 -20 -20 -21 -21 -21 -21 -21 -21 -21 -22 -22 -22 -22 -22 -22 -22 -22 -22 -22 -22 -22 -22 -22 -22 -22 -22 -22 -21 -21 -21 -21 -21 -21 -21 -21 -21 -21 -20 -20 -20 -19 -20 -20 -20 -20 -19 -19 -18 -18 -18 -18 -18 -17 -17 -17 -17 -17 -18 -18 -18 -18 -18 -18 -18 -18 -18 -19 -19 -20 -21 -21 -21 -22 -22 -22 -22 -22 -23 -23 -23 -23 -23 -23 -23 -23 -23 -23 -23 -23 -23 -23 -22 -22 -22 -22 -22 -22 -22 -22 -23 -23 -23 -23 -23 -23 -23 -23 -23 -23 -23 -23 -23 -23 -23 -23 -23 -23 -23 -23 -23 -23 -23 -23 -23 -23 -23 -23 -23 -23 -24 -23 -23 -23 -23 -23 -23 -23 -23 -23 -23 -23 -23 -24 -24 -24 -24 -24 -25 -25 -24 -24 -24 -24 -24 -24 -24 -24 -25 -25 -24 -24 -24 -24 -24 -24 -24 -24 -24 -24 -25 -25 -25 -25 -25 -26 -26 -26 -26 -26 -26 -26 -26 -26 -26 -27 -27 -27 -27 -27 -27 -27 -27 -27 -27 -27 -27 -27 -27 -27 -27 -27 -27 -27 -27 -27 -27 -27 -27 -27 -27 -27 -26 -27 -27 -27 -27 -27 -27 -26 -26 -26 -26 -26 -26 -26 -26 -26 -26 -26 -26 -26 -26 -26 -25 -26 -26 -26 -26 -26 -26 -26 -26 -26 -26 -26 -26 -27 -27 -28 -28 -28 -29 -29 -29 -29 -30 -30 -30 -29 -30 -30 -30 -29 -27 -29 -30 -30 -30 -30 -30 -30 -30 -31 -31 -31 -30 -30 -30 -31 -31 -31 -32 -32 -33 -33 -33 -33 -33 -33 -33 -33 -33 -33 -33 -33 -33 -33 -33 -33 -33 -33 -33 -32 -32 -32 -32 -32 -33 -33 -33 -33 -32 -32 -32 -32 -33 -33 -33 -33 -33 -33 -33 -33 -33 -34 -34 -34 -35 -35 -36 -36 -37 -37 -38 -38 -38 -38 -38 -38 -38 -38 -39 -38 -38 -38 -38 -38 -38 -38 -38 -38 -39 -39 -39 -39 -39 -39 -39 -39 -39 -39 -39 -40 -40 -40 -40 -40 -40 -40 -40 -40 -40
23 23 23 24 24 24 24 25 25 25 25 26 26 26 27 27 27 27 27 27 27 27 28 27 26 25 25 26 26 26 26 26 27 27 27 27 27 27 27 27 27 27 27 27 27 27 24 23 23 23 23 22 22 22 21 21 21 21 21 21 21 20 20 20 20 19 19 19 19 19 19 19 18 18 18 18 18 18 18 18 17 17 17 17 17 17 17 16 16 16 16 16 15 15 14 14 13 12 12 12 11 11 10 10 9 9 8 8 7 7 6 6 5 5 4 3 3 2 2 2 1 1 1 0 0 0 0 0 0 0 0 0 0 0 0 0 0 0 -1 -1 -1 -1 -1 -1 -1 -1 -1 -1 -1 -1 -1 -1 -1 -1 -1 -1 0 0 1 1 1 1 1 1 1 1 1 0 0 0 0 0 0 0 0 0 0 0 0 0 0 0 0 0 0 0 0 0 0 0 0 0 0 0 0 0 0 -1 -1 -2 -2 -2 -2 -2 -2 -2 -2 -1 -1 -1 -1 -1 -1 -1 -1 -1 -1 -1 -1 -1 -1 0 0 0 0 -2 -3 -4 -6 -7 -8 -9 -10 -11 -12 -13 -14 -15 -15 -16 -16 -17 -17 -18 -18 -18 -19 -19 -19 -19 -19 -19 -19 -19 -19 -19 -19 -20 -19 -19 -20 -20 -20 -20 -20 -20 -21 -21 -21 -21 -21 -21 -21 -20 -21 -21 -21 -21 -20 -21 -21 -21 -21 -21 -21 -21 -21 -21 -21 -21 -22 -22 -22 -21 -21 -21 -21 -21 -21 -21 -21 -20 -20 -20 -20 -20 -20 -20 -20 -20 -20 -20 -21 -21 -21 -21 -21 -21 -21 -21 -22 -22 -22 -22 -22 -22 -22 -22 -22 -22 -22 -22 -22 -22 -22 -21 -21 -21 -21 -21 -21 -21 -21 -21 -21 -21 -20 -20 -20 -19 -20 -20 -20 -19 -19 -19 -18 -18 -18 -18 -17 -17 -17 -17 -17 -17 -17 -18 -18 -18 -18 -18 -18 -18 -18 -18 -19 -20 -21 -21 -21 -22 -22 -22 -22 -22 -23 -23 -23 -23 -23 -23 -23 -23 -23 -23 -23 -23 -22 -22 -22 -22 -22 -22 -22 -22 -22 -22 -23 -23 -23 -23 -23 -23 -23 -23 -23 -23 -23 -23 -23 -23 -23 -23 -23 -23 -23 -23 -23 -23 -23 -23 -23 -23 -23 -23 -23 -23 -23 -23 -22 -22 -22 -22 -22 -22 -23 -23 -23 -23 -23 -24 -24 -24 -24 -24 -24 -24 -24 -24 -24 -24 -24 -24 -24 -24 -24 -24 -24 -24 -24 -24 -24 -24 -24 -24 -24 -24 -25 -25 -25 -25 -25 -26 -26 -26 -26 -26 -26 -26 -26 -26 -26 -27 -27 -27 -27 -27 -27 -27 -27 -27 -27 -27 -27 -27 -27 -27 -27 -27 -27 -26 -26 -26 -26 -26 -27 -27 -27 -26 -26 -26 -26 -26 -27 -27 -26 -26 -26 -26 -26 -26 -26 -26 -26 -26 -26 -26 -25 -25 -25 -25 -25 -26 -26 -26 -26 -26 -26 -26 -26 -26 -26 -27 -27 -27 -27 -28 -29 -29 -29 -28 -29 -29 -30 -29 -29 -30 -31 -31 -32 -32 -30 -31 -31 -31 -31 -31 -31 -31 -32 -32 -32 -33 -32 -31 -31 -32 -32 -32 -32 -32 -33 -33 -33 -32 -32 -33 -32 -32 -32 -32 -32 -33 -33 -33 -33 -33 -33 -33 -33 -33 -33 -33 -33 -33 -33 -34 -34 -33 -33 -33 -33 -33 -33 -33 -33 -33 -33 -33 -33 -33 -34 -34 -34 -35 -35 -36 -36 -37 -37 -38 -38 -39 -38 -38 -38 -38 -38 -38 -38 -38 -38 -38 -38 -38 -38 -38 -39 -39 -39 -39 -39 -39 -39 -39 -39 -39 -39 -39 -39 -39 -40 -40 -40 -40 -40 -40 -40 -40 -40
23 23 23 23 24 24 24 24 25 25 25 25 26 26 26 27 27 27 27 27 27 27 27 27 26 25 25 25 25 26 26 26 26 26 26 26 26 27 27 27 27 27 26 26 26 26 24 23 23 22 22 22 22 21 21 21 20 20 20 20 20 20 20 20 19 19 19 19 19 19 18 18 18 18 18 18 18 18 18 17 17 17 17 17 17 17 17 16 16 16 16 16 15 15 14 13 13 12 12 12 11 11 10 10 9 9 8 8 7 7 6 6 5 4 4 3 3 2 2 1 1 0 0 0 0 0 0 0 0 0 0 0 0 0 0 0 0 0 -1 -1 -1 -1 -1 -1 -1 -1 -1 -1 -1 -1 -1 -1 -1 -1 -1 -1 -1 -1 -1 -2 1 1 1 0 0 0 0 0 0 0 0 0 0 0 0 0 0 0 0 0 0 0 0 0 0 0 0 0 0 0 0 0 0 0 0 0 -1 -1 -2 -2 -2 -2 -2 -2 -2 -2 -2 -1 -1 -1 -1 -1 -1 -1 -1 0 0 0 0 0 0 0 0 0 0 -3 -4 -4 -7 -7 -8 -9 -10 -11 -12 -13 -14 -15 -15 -16 -16 -17 -17 -18 -18 -18 -18 -18 -18 -19 -19 -19 -19 -19 -19 -19 -19 -19 -19 -19 -19 -20 -20 -20 -20 -20 -21 -21 -21 -20 -20 -20 -20 -20 -20 -20 -21 -22 -21 -21 -21 -21 -21 -21 -21 -21 -21 -21 -22 -22 -22 -22 -22 -21 -21 -21 -21 -21 -21 -21 -21 -20 -20 -20 -20 -20 -20 -20 -20 -20 -20 -20 -20 -21 -21 -21 -21 -21 -21 -21 -21 -22 -22 -22 -22 -22 -22 -22 -22 -22 -22 -22 -22 -22 -21 -21 -21 -21 -21 -21 -21 -21 -21 -21 -21 -21 -20 -20 -20 -20 -20 -20 -19 -19 -19 -18 -18 -18 -17 -17 -17 -17 -17 -17 -17 -17 -17 -17 -17 -18 -18 -18 -18 -17 -18 -18 -19 -20 -21 -21 -22 -22 -22 -22 -23 -23 -23 -23 -23 -23 -23 -23 -23 -23 -23 -23 -23 -22 -22 -22 -22 -22 -22 -22 -22 -21 -22 -22 -22 -23 -23 -23 -23 -23 -23 -23 -23 -23 -23 -23 -23 -23 -22 -22 -22 -22 -22 -23 -23 -23 -23 -23 -23 -23 -23 -23 -23 -23 -23 -22 -22 -21 -21 -21 -22 -22 -22 -23 -23 -23 -23 -24 -24 -24 -24 -24 -24 -24 -24 -24 -24 -24 -24 -24 -24 -24 -24 -24 -24 -24 -24 -24 -24 -24 -24 -24 -24 -24 -25 -25 -25 -25 -26 -26 -26 -26 -26 -26 -26 -26 -26 -26 -26 -27 -27 -27 -27 -27 -27 -27 -27 -27 -27 -27 -27 -27 -27 -27 -26 -26 -26 -26 -26 -26 -26 -26 -26 -26 -26 -26 -26 -26 -26 -26 -26 -26 -26 -26 -26 -26 -26 -26 -26 -26 -26 -26 -25 -25 -25 -25 -25 -25 -25 -26 -26 -26 -26 -26 -26 -26 -26 -26 -27 -27 -27 -27 -28 -28 -29 -29 -29 -29 -30 -30 -30 -30 -30 -31 -32 -32 -33 -34 -33 -33 -33 -33 -32 -32 -32 -32 -32 -33 -33 -33 -33 -32 -32 -32 -32 -33 -33 -33 -33 -33 -33 -32 -32 -32 -32 -32 -32 -32 -32 -32 -32 -33 -33 -33 -33 -32 -32 -33 -33 -33 -33 -33 -34 -34 -34 -33 -33 -33 -33 -33 -33 -34 -34 -33 -34 -34 -34 -34 -34 -34 -35 -35 -36 -36 -36 -37 -37 -38 -38 -39 -38 -38 -38 -38 -38 -38 -38 -38 -38 -38 -38 -38 -38 -38 -39 -39 -39 -39 -39 -39 -39 -39 -39 -39 -39 -39 -39 -39 -39 -40 -40 -40 -40 -40 -40 -40 -40
22 23 23 23 23 24 24 24 24 24 25 25 25 26 26 26 26 27 27 27 27 27 27 27 26 25 25 25 25 25 25 26 26 26 26 26 26 26 26 26 26 26 26 26 26 25 23 23 22 22 22 21 21 21 20 20 20 20 20 20 20 20 19 19 19 19 18 18 18 18 18 18 18 18 18 18 17 17 17 17 17 17 17 17 17 17 16 16 16 16 16 16 15 14 14 13 13 12 12 11 11 10 10 9 9 8 8 7 7 6 6 5 5 4 3 2 2 1 1 0 0 0 0 0 0 0 0 0 0 0 0 0 0 0 0 0 0 0 -1 -1 -1 -1 -1 -1 -1 -1 -1 -1 -1 -1 -1 -1 -1 -1 -1 -1 -1 -1 -1 -1 0 0 0 0 0 0 0 0 0 0 0 0 0 0 0 0 0 0 0 0 0 0 0 0 0 0 0 0 0 0 0 0 0 0 0 0 -1 -1 -2 -2 -2 -2 -2 -2 -2 -2 -1 -1 -1 -1 -1 -1 -1 0 0 0 0 0 0 0 0 0 0 0 0 -3 -5 -6 -7 -8 -9 -9 -10 -11 -12 -13 -14 -15 -15 -16 -16 -17 -17 -18 -18 -18 -18 -18 -18 -18 -18 -18 -18 -19 -19 -19 -19 -19 -19 -19 -20 -20 -20 -20 -20 -20 -20 -20 -20 -20 -20 -20 -20 -20 -20 -21 -21 -22 -21 -21 -21 -21 -21 -21 -21 -21 -21 -22 -22 -22 -22 -22 -22 -22 -21 -21 -21 -21 -21 -21 -21 -20 -20 -20 -20 -20 -20 -20 -20 -20 -20 -20 -20 -20 -21 -21 -21 -21 -21 -21 -21 -22 -22 -22 -22 -22 -22 -22 -22 -22 -22 -22 -22 -21 -21 -21 -21 -21 -21 -21 -21 -21 -21 -21 -21 -20 -20 -20 -20 -20 -20 -19 -19 -19 -18 -18 -18 -17 -17 -17 -17 -17 -17 -17 -17 -17 -17 -17 -17 -17 -18 -18 -18 -18 -18 -18 -19 -20 -21 -21 -22 -22 -22 -23 -23 -23 -23 -23 -23 -23 -23 -23 -23 -23 -23 -22 -22 -22 -22 -22 -22 -22 -22 -22 -22 -22 -22 -22 -22 -23 -23 -23 -23 -23 -23 -23 -23 -23 -23 -23 -23 -23 -22 -22 -22 -22 -22 -23 -23 -23 -23 -23 -23 -23 -23 -22 -22 -22 -22 -22 -21 -20 -21 -21 -21 -22 -22 -22 -23 -23 -24 -24 -24 -24 -24 -24 -24 -24 -24 -24 -24 -24 -24 -24 -24 -24 -24 -24 -24 -24 -24 -24 -24 -24 -24 -24 -24 -25 -25 -25 -25 -25 -26 -26 -26 -26 -26 -26 -26 -26 -26 -26 -26 -27 -27 -27 -27 -27 -27 -27 -27 -27 -27 -27 -27 -27 -27 -26 -26 -26 -26 -26 -26 -26 -26 -26 -26 -26 -26 -26 -26 -26 -26 -26 -26 -26 -26 -26 -26 -26 -26 -26 -26 -26 -26 -25 -25 -25 -25 -25 -25 -25 -25 -26 -26 -26 -26 -26 -26 -27 -27 -27 -27 -27 -28 -28 -28 -29 -30 -30 -31 -31 -31 -31 -31 -31 -33 -33 -33 -33 -34 -35 -34 -34 -34 -34 -33 -33 -33 -33 -33 -33 -33 -33 -33 -33 -33 -33 -33 -33 -33 -33 -33 -33 -33 -32 -32 -32 -32 -32 -32 -32 -32 -32 -32 -33 -33 -33 -33 -33 -33 -33 -33 -33 -33 -33 -33 -34 -34 -34 -33 -33 -34 -34 -34 -34 -34 -34 -34 -34 -34 -35 -35 -35 -35 -36 -36 -36 -37 -37 -37 -38 -39 -38 -38 -38 -38 -38 -38 -38 -38 -38 -38 -38 -38 -38 -38 -38 -38 -39 -38 -38 -39 -39 -38 -38 -38 -38 -38 -38 -38 -39 -39 -40 -40 -40 -40 -40 -40 -39 -39
22 22 23 23 23 23 24 24 24 24 24 25 25 25 26 26 26 26 26 26 26 26 27 26 25 24 24 24 24 25 25 25 25 25 25 25 25 26 26 25 25 25 25 25 25 24 22 22 22 21 21 21 21 20 20 20 20 20 20 20 20 19 19 19 18 18 18 18 18 18 18 18 18 18 17 17 17 17 17 17 17 17 17 17 17 17 16 16 16 16 16 16 15 14 14 13 12 12 12 11 11 10 10 9 8 8 8 7 7 6 6 5 4 3 2 2 1 0 0 0 0 0 0 0 0 0 0 0 0 0 -1 -1 -1 0 0 0 -1 -1 -1 -1 -1 -1 -1 -1 -1 -1 -1 -1 -1 -1 -1 -1 -1 -1 -1 -1 -1 -1 -1 -1 -1 0 0 0 0 0 0 0 0 0 0 0 0 0 0 0 0 0 0 0 0 0 0 0 0 0 0 0 0 0 0 0 0 0 -1 -1 -2 -2 -2 -2 -2 -2 -2 -2 -2 -2 -1 -1 -1 -1 -1 -1 -1 0 0 0 0 0 0 0 0 0 0 0 0 -3 -6 -6 -7 -8 -9 -10 -11 -11 -12 -13 -14 -15 -15 -16 -17 -17 -17 -18 -18 -18 -18 -18 -18 -18 -18 -18 -18 -18 -19 -19 -20 -20 -20 -20 -20 -20 -20 -20 -20 -20 -20 -20 -20 -20 -20 -20 -20 -20 -20 -21 -21 -21 -21 -20 -20 -20 -21 -21 -21 -21 -21 -22 -22 -22 -22 -22 -22 -22 -21 -21 -21 -21 -21 -21 -21 -21 -20 -20 -19 -19 -19 -19 -20 -20 -20 -20 -20 -20 -20 -21 -21 -21 -21 -21 -21 -21 -22 -22 -22 -22 -22 -22 -22 -22 -22 -22 -21 -21 -21 -21 -21 -21 -21 -21 -21 -21 -21 -21 -21 -20 -20 -20 -20 -20 -19 -19 -19 -18 -18 -18 -18 -17 -17 -17 -17 -17 -17 -16 -17 -17 -17 -17 -17 -17 -18 -18 -19 -19 -20 -20 -20 -20 -21 -21 -22 -22 -22 -23 -23 -23 -23 -23 -23 -23 -23 -23 -23 -23 -23 -22 -22 -22 -22 -22 -22 -22 -22 -22 -21 -22 -22 -22 -22 -23 -23 -23 -23 -23 -23 -23 -23 -23 -23 -23 -23 -22 -22 -22 -22 -22 -22 -22 -22 -22 -22 -22 -22 -22 -22 -22 -21 -21 -21 -21 -21 -21 -21 -21 -22 -22 -22 -23 -23 -24 -24 -24 -24 -24 -24 -24 -24 -24 -24 -24 -24 -24 -24 -24 -24 -24 -24 -24 -24 -24 -24 -24 -24 -24 -24 -24 -25 -25 -25 -25 -25 -26 -26 -26 -26 -26 -26 -26 -26 -26 -26 -26 -26 -27 -27 -27 -27 -27 -27 -27 -27 -27 -27 -27 -27 -27 -27 -26 -26 -26 -26 -26 -26 -26 -26 -26 -26 -26 -26 -26 -26 -26 -26 -26 -26 -26 -26 -26 -26 -26 -26 -26 -26 -26 -26 -25 -25 -25 -25 -25 -25 -25 -26 -26 -26 -26 -26 -26 -27 -27 -27 -27 -28 -27 -29 -30 -30 -31 -31 -32 -33 -34 -34 -34 -33 -33 -34 -33 -33 -33 -34 -34 -34 -34 -34 -34 -33 -33 -33 -33 -33 -33 -33 -33 -33 -33 -33 -33 -33 -33 -33 -33 -33 -33 -32 -32 -32 -32 -32 -32 -32 -33 -32 -32 -32 -33 -33 -33 -33 -33 -33 -33 -33 -33 -33 -33 -33 -33 -34 -34 -34 -34 -34 -34 -34 -34 -34 -34 -34 -34 -34 -35 -35 -35 -35 -36 -36 -37 -37 -37 -37 -38 -38 -39 -38 -38 -38 -38 -38 -38 -38 -38 -38 -38 -38 -38 -38 -38 -38 -38 -38 -38 -38 -38 -38 -38 -38 -38 -38 -38 -38 -39 -40 -40 -39 -39 -39 -39 -39 -39 -39
22 22 22 22 23 23 23 23 24 24 24 24 25 25 25 26 26 26 26 26 26 26 26 26 25 24 24 24 24 24 25 25 25 25 25 25 25 25 25 25 25 25 25 25 25 23 22 22 21 21 21 20 20 20 20 20 19 19 19 19 19 19 18 18 18 18 18 18 18 17 17 17 17 17 17 17 17 17 17 17 17 17 17 16 16 16 16 16 16 16 16 15 15 14 14 13 12 12 12 11 11 10 10 9 9 8 8 8 7 7 6 5 5 4 3 2 1 1 1 1 1 1 1 0 -1 -1 -1 -1 -1 0 0 -1 -1 -1 -1 -1 -1 -1 0 -1 -1 -1 -1 -1 -1 -1 -1 -1 -1 -1 -1 -1 -1 -1 -1 -1 -1 -1 -1 -1 0 0 0 0 0 0 0 0 0 0 0 0 0 0 0 0 0 0 0 0 0 0 0 0 0 0 0 0 0 0 0 0 0 -1 -1 -2 -2 -2 -2 -2 -2 -2 -2 -2 -2 -2 -2 -1 -1 -1 -1 -1 -1 0 0 0 0 0 0 0 0 0 0 0 -1 -3 -6 -6 -7 -8 -9 -10 -11 -12 -12 -13 -14 -15 -16 -16 -17 -17 -17 -18 -18 -18 -18 -18 -18 -18 -18 -18 -18 -18 -19 -19 -20 -20 -20 -20 -20 -20 -20 -20 -20 -20 -20 -20 -20 -20 -20 -21 -21 -21 -20 -20 -21 -21 -20 -20 -20 -20 -21 -21 -21 -21 -21 -22 -22 -22 -22 -22 -22 -22 -22 -21 -21 -21 -21 -21 -21 -20 -20 -19 -19 -19 -19 -19 -19 -20 -20 -20 -20 -20 -20 -20 -21 -21 -21 -21 -21 -21 -21 -22 -22 -22 -22 -22 -22 -22 -22 -21 -21 -21 -21 -21 -21 -21 -21 -21 -21 -21 -21 -21 -21 -21 -20 -20 -20 -20 -20 -19 -19 -19 -18 -18 -18 -18 -17 -17 -17 -17 -17 -16 -17 -17 -17 -18 -18 -18 -19 -19 -21 -21 -21 -21 -21 -21 -21 -21 -22 -22 -22 -22 -23 -23 -23 -23 -23 -23 -23 -23 -23 -23 -22 -22 -22 -22 -22 -22 -22 -22 -22 -22 -22 -22 -22 -22 -23 -23 -23 -23 -23 -23 -23 -23 -23 -23 -23 -23 -22 -22 -22 -23 -22 -22 -22 -22 -22 -22 -21 -21 -21 -21 -21 -21 -21 -20 -21 -21 -21 -21 -22 -22 -22 -23 -23 -23 -23 -24 -24 -24 -24 -24 -24 -24 -24 -24 -24 -24 -24 -24 -24 -24 -24 -24 -24 -24 -24 -24 -24 -24 -24 -24 -25 -25 -25 -25 -25 -25 -26 -26 -26 -26 -26 -26 -26 -26 -26 -26 -26 -26 -27 -27 -27 -27 -27 -27 -27 -27 -27 -27 -27 -27 -27 -27 -27 -27 -26 -26 -26 -26 -26 -26 -26 -26 -26 -26 -26 -26 -26 -27 -27 -26 -26 -26 -26 -26 -26 -26 -26 -26 -26 -26 -26 -26 -26 -26 -26 -26 -26 -26 -26 -26 -26 -26 -27 -26 -27 -27 -27 -28 -29 -30 -31 -32 -33 -33 -33 -34 -35 -35 -35 -36 -35 -34 -34 -34 -34 -33 -33 -33 -33 -33 -33 -33 -33 -33 -33 -33 -33 -33 -33 -33 -33 -33 -33 -33 -33 -33 -33 -33 -33 -33 -32 -32 -33 -33 -32 -32 -33 -33 -33 -33 -33 -33 -33 -33 -33 -32 -32 -33 -33 -33 -33 -33 -33 -33 -34 -34 -34 -34 -34 -34 -34 -34 -34 -34 -34 -34 -34 -35 -35 -35 -36 -36 -37 -37 -37 -37 -38 -38 -38 -38 -38 -38 -38 -38 -38 -38 -38 -38 -38 -38 -38 -38 -38 -38 -38 -38 -38 -38 -38 -38 -38 -38 -38 -38 -38 -38 -38 -39 -39 -39 -39 -39 -39 -39 -39 -38 -38
21 22 22 22 22 23 23 23 23 24 24 24 25 25 25 25 25 25 26 26 25 25 25 25 24 23 23 23 24 24 24 24 24 24 24 24 24 24 24 24 24 24 24 24 24 23 21 21 21 20 20 20 20 20 19 19 19 19 19 19 19 18 18 18 18 17 17 17 17 17 17 17 17 17 17 17 17 17 17 17 17 16 16 16 16 16 16 16 16 16 16 15 15 14 14 13 13 12 12 12 11 11 10 10 9 9 9 9 8 8 7 6 5 5 4 3 2 2 2 2 2 2 2 2 1 1 1 1 1 0 0 0 0 0 0 -1 -1 1 0 0 0 0 0 0 -1 -1 -1 -1 -1 -1 -1 -1 -1 -1 -1 -1 -1 -1 -1 -1 0 0 0 0 0 0 0 0 0 0 0 0 0 0 0 0 0 0 0 0 0 0 0 0 0 0 0 0 0 0 0 -1 -1 -1 -2 -2 -2 -2 -2 -2 -2 -2 -2 -2 -2 -1 -2 -1 -1 -1 -1 -1 -1 0 0 0 0 0 0 0 0 0 0 0 -2 -3 -6 -7 -8 -8 -9 -10 -11 -12 -13 -14 -14 -15 -16 -16 -17 -17 -17 -18 -18 -18 -18 -18 -18 -18 -18 -18 -18 -18 -19 -19 -20 -20 -20 -20 -20 -20 -20 -20 -20 -20 -20 -20 -20 -20 -20 -21 -21 -21 -20 -20 -20 -20 -20 -20 -20 -20 -21 -21 -21 -21 -22 -22 -22 -22 -22 -22 -22 -22 -22 -21 -21 -21 -21 -21 -21 -20 -19 -19 -19 -19 -19 -19 -19 -20 -20 -20 -20 -20 -20 -20 -21 -21 -21 -21 -21 -21 -21 -22 -22 -22 -22 -22 -22 -21 -21 -21 -21 -21 -21 -21 -21 -21 -21 -21 -20 -20 -21 -21 -21 -21 -20 -20 -20 -20 -20 -19 -19 -19 -18 -18 -18 -18 -18 -18 -18 -18 -18 -18 -18 -18 -18 -18 -19 -19 -19 -20 -21 -21 -21 -21 -21 -21 -21 -21 -22 -22 -22 -22 -22 -23 -23 -23 -23 -23 -23 -23 -22 -22 -22 -22 -22 -22 -22 -22 -22 -22 -22 -22 -22 -22 -23 -23 -23 -23 -23 -23 -23 -23 -23 -23 -23 -23 -23 -23 -23 -22 -22 -23 -22 -22 -22 -22 -21 -21 -21 -20 -21 -20 -20 -20 -20 -20 -21 -21 -22 -22 -22 -23 -23 -23 -23 -23 -24 -24 -24 -24 -24 -24 -24 -24 -24 -24 -24 -24 -24 -24 -24 -24 -24 -24 -24 -24 -24 -24 -24 -24 -24 -25 -25 -25 -25 -25 -25 -26 -26 -26 -26 -26 -26 -26 -26 -26 -26 -26 -26 -26 -26 -27 -27 -27 -26 -27 -27 -27 -27 -27 -27 -27 -27 -27 -27 -27 -27 -26 -26 -26 -27 -27 -27 -27 -27 -26 -27 -27 -27 -27 -27 -26 -26 -26 -26 -26 -26 -25 -26 -26 -26 -26 -26 -26 -26 -26 -26 -27 -26 -26 -27 -27 -27 -27 -27 -27 -28 -28 -28 -30 -31 -34 -33 -34 -35 -34 -34 -35 -36 -35 -35 -35 -35 -34 -34 -34 -34 -33 -33 -33 -33 -32 -33 -33 -33 -33 -33 -33 -33 -33 -34 -33 -33 -33 -33 -33 -33 -33 -33 -33 -33 -33 -32 -32 -33 -33 -32 -32 -32 -33 -33 -33 -33 -33 -33 -33 -32 -32 -33 -33 -33 -33 -33 -33 -33 -33 -34 -34 -34 -34 -34 -34 -34 -34 -34 -34 -34 -35 -35 -35 -35 -36 -36 -37 -37 -37 -37 -38 -38 -38 -38 -38 -38 -37 -38 -38 -38 -38 -38 -38 -38 -38 -38 -38 -38 -38 -38 -38 -38 -38 -38 -38 -38 -38 -38 -38 -37 -38 -38 -38 -39 -39 -39 -39 -39 -39 -38 -38 -37
21 21 22 22 22 22 23 23 23 23 24 24 24 25 25 25 25 25 25 25 25 25 25 25 24 23 23 23 23 23 24 24 24 24 24 24 24 24 24 24 24 24 23 23 23 23 21 21 20 20 20 20 20 19 19 19 19 18 18 18 18 18 18 17 17 17 17 17 17 17 17 17 17 17 16 16 16 16 16 16 16 16 16 16 16 16 16 16 16 16 16 16 15 15 15 14 13 13 12 12 12 12 11 11 11 10 11 10 10 10 9 8 7 6 5 5 4 4 3 3 3 2 2 2 2 2 2 2 2 1 1 0 1 1 1 1 1 1 1 1 1 1 0 0 0 0 0 0 0 0 -1 -1 -1 -1 -1 -1 -1 -1 -1 -1 -1 0 0 0 0 0 0 0 0 0 0 0 0 0 0 0 0 0 0 0 0 0 0 0 0 0 0 0 -1 -1 -1 -1 -2 -2 -2 -2 -2 -2 -2 -2 -2 -2 -2 -2 -2 -1 -1 -1 -1 -1 -1 -1 -1 -1 0 0 0 0 0 0 0 0 0 -1 -2 -3 -6 -7 -8 -9 -10 -10 -11 -12 -13 -14 -15 -15 -16 -16 -17 -17 -17 -18 -18 -18 -18 -18 -18 -18 -18 -18 -19 -19 -19 -19 -20 -20 -20 -20 -20 -20 -20 -20 -20 -20 -20 -20 -20 -20 -20 -21 -20 -20 -20 -20 -20 -20 -20 -20 -20 -20 -21 -21 -21 -21 -22 -22 -22 -22 -22 -22 -22 -22 -22 -21 -21 -21 -21 -21 -21 -20 -20 -20 -20 -20 -19 -19 -20 -20 -20 -20 -20 -20 -20 -20 -20 -21 -21 -21 -21 -21 -21 -22 -22 -22 -22 -22 -21 -21 -21 -21 -21 -21 -21 -21 -21 -21 -21 -20 -20 -20 -24 -22 -21 -21 -21 -21 -20 -20 -20 -19 -19 -18 -18 -18 -18 -18 -18 -18 -18 -18 -19 -19 -19 -19 -19 -19 -19 -20 -20 -21 -21 -21 -22 -21 -21 -21 -21 -21 -22 -22 -22 -22 -22 -22 -23 -23 -23 -23 -23 -22 -22 -22 -22 -22 -22 -22 -22 -22 -22 -22 -22 -22 -22 -22 -22 -23 -23 -23 -23 -23 -23 -23 -23 -23 -23 -23 -23 -22 -22 -22 -22 -22 -22 -22 -22 -21 -21 -21 -21 -21 -21 -21 -20 -20 -20 -20 -21 -21 -22 -22 -23 -23 -23 -23 -24 -24 -24 -24 -24 -24 -24 -24 -24 -24 -24 -24 -24 -23 -24 -24 -24 -24 -24 -24 -24 -24 -24 -24 -24 -25 -25 -25 -25 -25 -25 -25 -25 -26 -26 -26 -26 -26 -26 -26 -26 -26 -26 -26 -26 -26 -26 -26 -26 -26 -26 -27 -27 -27 -27 -27 -27 -27 -27 -27 -27 -27 -27 -27 -27 -27 -27 -27 -27 -27 -27 -27 -27 -27 -27 -27 -27 -26 -26 -26 -26 -25 -25 -25 -25 -26 -26 -26 -26 -26 -26 -26 -26 -26 -26 -26 -27 -27 -27 -28 -28 -29 -30 -30 -30 -31 -32 -33 -34 -34 -35 -35 -35 -35 -35 -35 -34 -34 -34 -34 -34 -34 -33 -33 -33 -33 -32 -32 -32 -33 -33 -33 -33 -33 -33 -33 -33 -33 -33 -33 -33 -33 -33 -33 -33 -33 -33 -32 -32 -32 -32 -32 -32 -32 -32 -33 -33 -33 -33 -33 -33 -33 -32 -32 -32 -33 -33 -33 -33 -33 -33 -34 -34 -34 -34 -34 -34 -34 -34 -34 -34 -34 -35 -35 -35 -35 -35 -36 -36 -37 -37 -37 -37 -37 -37 -37 -38 -37 -37 -37 -37 -38 -38 -38 -38 -38 -38 -38 -38 -38 -38 -38 -38 -38 -38 -38 -38 -38 -38 -38 -38 -38 -38 -38 -38 -39 -39 -39 -39 -38 -38 -38 -38 -37 -37
21 21 21 22 22 22 22 23 23 23 23 23 24 24 24 24 25 25 25 25 24 24 24 24 23 23 23 23 23 23 23 23 23 23 23 23 23 23 23 23 23 23 23 23 23 22 20 20 20 20 20 19 19 19 18 18 18 18 18 18 18 17 17 17 17 17 17 16 16 16 16 16 16 16 16 16 16 16 16 16 16 16 16 16 16 16 16 16 16 16 16 16 15 15 15 14 14 13 13 13 12 12 12 12 12 12 11 10 10 10 10 10 8 8 7 6 5 5 4 4 4 3 3 3 3 2 2 2 2 2 2 1 2 2 2 2 2 1 1 1 1 1 1 1 0 0 0 0 0 0 0 0 -1 -1 -1 -1 -1 -1 -1 -1 -1 -1 -1 -1 -1 0 0 0 0 0 0 0 0 0 0 -2 0 0 0 0 0 0 0 0 0 0 0 0 -1 -1 -1 -2 -2 -2 -2 -2 -2 -2 -2 -2 -2 -2 -2 -2 -2 -1 -1 -1 -1 -1 -1 -1 -1 0 0 0 0 0 0 0 0 0 0 -1 -2 -4 -6 -7 -8 -9 -10 -11 -12 -12 -13 -14 -15 -15 -16 -16 -17 -17 -17 -18 -18 -18 -18 -18 -18 -18 -18 -19 -19 -19 -19 -19 -20 -20 -20 -19 -19 -19 -20 -20 -20 -20 -20 -20 -20 -20 -20 -20 -20 -19 -20 -20 -20 -20 -20 -20 -20 -21 -21 -21 -21 -21 -22 -22 -22 -22 -22 -22 -22 -22 -22 -21 -21 -21 -21 -21 -21 -21 -20 -20 -20 -20 -20 -20 -20 -20 -20 -20 -20 -20 -20 -20 -20 -21 -21 -21 -21 -21 -21 -22 -22 -22 -21 -21 -21 -21 -21 -21 -21 -21 -21 -21 -21 -21 -21 -21 -20 -20 -22 -21 -21 -20 -20 -20 -21 -20 -20 -19 -19 -18 -18 -18 -18 -18 -18 -18 -19 -19 -19 -19 -19 -19 -20 -21 -20 -20 -20 -20 -21 -21 -21 -21 -21 -21 -21 -21 -22 -22 -22 -22 -22 -22 -22 -23 -23 -23 -23 -22 -22 -22 -22 -22 -22 -22 -22 -22 -22 -22 -22 -22 -22 -22 -22 -23 -23 -23 -23 -23 -23 -23 -23 -23 -23 -22 -22 -22 -22 -22 -22 -22 -22 -21 -21 -21 -21 -21 -21 -21 -21 -21 -21 -21 -21 -22 -22 -22 -22 -22 -23 -23 -23 -23 -24 -24 -24 -24 -24 -24 -24 -24 -24 -24 -24 -24 -23 -23 -24 -24 -24 -24 -24 -24 -24 -24 -24 -24 -24 -25 -25 -25 -25 -25 -25 -25 -25 -26 -26 -26 -26 -26 -26 -26 -26 -26 -26 -26 -26 -26 -26 -26 -26 -26 -26 -26 -27 -27 -27 -27 -27 -27 -27 -27 -27 -27 -27 -27 -27 -27 -27 -27 -27 -27 -27 -27 -27 -27 -26 -26 -26 -26 -26 -26 -26 -25 -25 -25 -26 -26 -26 -26 -26 -26 -26 -26 -26 -25 -26 -26 -27 -27 -28 -29 -30 -31 -32 -33 -33 -32 -33 -33 -34 -34 -34 -34 -34 -34 -34 -34 -34 -34 -33 -33 -33 -33 -33 -33 -32 -32 -32 -32 -32 -32 -32 -33 -33 -33 -33 -33 -33 -33 -33 -33 -33 -33 -33 -33 -33 -32 -32 -32 -32 -32 -32 -32 -32 -32 -32 -32 -33 -33 -33 -32 -32 -32 -32 -32 -32 -33 -33 -33 -33 -33 -33 -33 -34 -34 -34 -34 -34 -34 -34 -34 -34 -35 -35 -35 -35 -35 -35 -36 -36 -36 -37 -37 -37 -37 -37 -37 -37 -37 -37 -37 -37 -37 -38 -38 -38 -38 -38 -38 -38 -38 -38 -38 -38 -38 -38 -37 -37 -37 -38 -38 -38 -38 -38 -38 -38 -39 -39 -38 -38 -38 -38 -38 -37 -37 -37
20 21 21 21 22 22 22 22 23 23 23 23 23 24 24 24 24 24 24 24 24 24 24 24 23 22 22 23 23 23 23 23 23 23 23 23 23 23 23 23 23 23 23 22 22 21 20 20 20 19 19 19 19 18 18 18 18 17 17 17 17 17 16 16 16 16 16 16 16 16 16 16 16 16 16 16 16 16 16 16 16 16 16 16 16 16 16 16 16 16 16 16 15 15 15 14 14 14 13 13 13 13 12 12 11 11 10 10 10 10 9 9 9 9 8 8 6 6 5 5 5 4 4 4 3 3 3 3 3 2 2 2 2 2 2 2 2 2 2 2 1 1 1 1 0 0 0 0 0 0 0 0 -1 -1 -1 -1 -1 -1 -1 -1 -2 -1 -1 -1 -1 -1 0 0 -1 -1 -1 0 0 0 0 -3 0 0 0 0 0 0 0 0 0 0 0 0 -1 -1 -2 -2 -2 -2 -2 -2 -2 -2 -2 -1 -2 -2 -2 -2 -1 -1 -1 -1 -1 -1 -1 -1 -1 0 0 0 0 0 0 0 0 0 0 -1 -3 -5 -6 -7 -9 -9 -10 -11 -12 -13 -14 -14 -15 -16 -16 -17 -17 -17 -17 -18 -18 -18 -18 -18 -18 -18 -18 -19 -19 -19 -19 -20 -20 -20 -19 -19 -19 -19 -19 -20 -20 -20 -20 -20 -20 -20 -20 -20 -20 -20 -20 -20 -20 -21 -21 -21 -21 -21 -21 -21 -21 -21 -22 -22 -22 -22 -22 -22 -22 -22 -22 -21 -21 -21 -21 -21 -21 -21 -20 -20 -20 -20 -20 -20 -20 -20 -20 -20 -20 -20 -20 -20 -20 -21 -21 -21 -21 -21 -22 -22 -22 -21 -21 -21 -21 -21 -21 -21 -21 -21 -21 -21 -21 -21 -21 -21 -20 -20 -20 -20 -20 -20 -20 -20 -20 -20 -20 -19 -18 -18 -18 -19 -19 -19 -19 -19 -19 -19 -19 -19 -19 -20 -20 -20 -20 -20 -20 -20 -21 -21 -21 -21 -21 -21 -21 -22 -22 -22 -22 -22 -22 -22 -22 -23 -23 -22 -22 -22 -22 -22 -22 -22 -22 -22 -22 -22 -22 -22 -22 -22 -22 -22 -22 -23 -23 -23 -23 -23 -23 -23 -22 -22 -22 -22 -22 -21 -21 -21 -21 -21 -21 -21 -21 -21 -21 -21 -21 -21 -21 -21 -21 -21 -21 -22 -22 -22 -22 -22 -23 -23 -23 -23 -24 -24 -24 -24 -24 -24 -24 -24 -24 -24 -24 -24 -24 -23 -24 -24 -24 -24 -24 -24 -24 -24 -24 -24 -24 -25 -25 -25 -25 -25 -25 -25 -25 -26 -26 -26 -26 -26 -26 -26 -26 -25 -25 -26 -26 -26 -26 -26 -26 -26 -26 -26 -26 -27 -27 -27 -27 -27 -27 -27 -27 -27 -27 -27 -27 -27 -27 -27 -27 -27 -27 -27 -26 -26 -26 -26 -26 -26 -26 -26 -26 -26 -26 -26 -26 -26 -26 -26 -25 -26 -25 -25 -25 -25 -26 -26 -28 -29 -30 -31 -31 -32 -33 -34 -33 -33 -33 -34 -34 -34 -34 -34 -34 -34 -34 -34 -33 -33 -33 -33 -33 -32 -32 -32 -32 -32 -32 -32 -32 -32 -32 -32 -32 -33 -33 -33 -33 -33 -33 -33 -33 -33 -33 -32 -32 -32 -32 -32 -32 -32 -32 -32 -32 -32 -32 -32 -33 -33 -32 -32 -32 -32 -32 -32 -32 -32 -33 -33 -33 -33 -33 -33 -33 -33 -34 -34 -34 -34 -34 -34 -35 -35 -35 -35 -35 -35 -35 -36 -36 -36 -37 -37 -37 -37 -37 -37 -38 -37 -37 -37 -37 -37 -37 -38 -38 -38 -38 -38 -38 -38 -38 -38 -38 -37 -37 -37 -37 -37 -37 -38 -38 -38 -38 -38 -39 -39 -38 -38 -38 -37 -37 -37 -37 -37 -36
20 20 21 21 21 21 22 22 22 22 23 23 23 23 24 24 24 24 24 24 23 23 23 23 22 22 22 22 22 22 22 23 23 23 23 23 23 23 23 22 22 22 22 22 22 21 20 19 19 19 19 18 18 18 18 17 17 17 17 17 17 16 16 16 16 16 16 16 16 16 16 16 16 16 16 16 16 16 16 16 16 16 16 16 15 15 15 15 15 15 16 16 15 15 15 14 14 14 14 13 12 12 12 11 11 10 10 9 9 9 9 9 9 9 9 9 8 8 7 6 5 5 5 5 4 4 4 4 4 3 3 3 3 3 3 3 2 2 2 2 2 2 1 1 0 0 0 0 0 0 0 0 0 -1 -1 -1 -1 -1 -1 -1 -2 -2 -2 -1 -1 -1 -1 -1 -1 -1 0 0 0 0 0 0 -1 0 0 0 0 0 0 0 0 0 0 0 0 0 -2 -2 -2 -2 -2 -2 -2 -2 -2 -1 -1 -1 -1 -2 -1 -1 -1 -1 -1 -1 -1 -1 -1 -1 -1 -1 0 0 0 0 0 0 0 -2 -4 -6 -7 -8 -9 -10 -10 -11 -12 -13 -14 -15 -15 -16 -16 -17 -17 -17 -18 -18 -18 -18 -18 -18 -18 -18 -19 -19 -19 -19 -19 -19 -19 -19 -19 -19 -19 -19 -19 -20 -20 -20 -20 -20 -20 -20 -20 -20 -20 -20 -20 -20 -21 -21 -21 -21 -21 -21 -21 -21 -21 -22 -22 -22 -22 -22 -23 -22 -22 -22 -22 -21 -21 -21 -21 -21 -21 -21 -21 -20 -20 -20 -20 -20 -20 -20 -20 -20 -20 -20 -20 -20 -20 -21 -21 -21 -21 -21 -22 -22 -22 -21 -21 -21 -21 -21 -21 -21 -21 -21 -21 -21 -21 -21 -21 -21 -21 -20 -20 -20 -20 -20 -20 -20 -20 -20 -19 -19 -18 -18 -18 -19 -19 -19 -19 -19 -19 -20 -20 -20 -20 -20 -20 -20 -20 -20 -20 -20 -21 -21 -21 -21 -21 -21 -22 -22 -22 -22 -22 -22 -22 -22 -22 -22 -23 -22 -22 -22 -22 -22 -22 -22 -22 -22 -22 -22 -22 -22 -22 -22 -22 -22 -22 -23 -23 -23 -23 -23 -23 -22 -22 -22 -22 -21 -21 -21 -21 -21 -21 -21 -20 -21 -21 -21 -21 -21 -21 -21 -21 -21 -21 -21 -21 -21 -22 -22 -22 -23 -23 -23 -23 -23 -24 -24 -24 -24 -23 -23 -23 -23 -23 -23 -24 -24 -24 -24 -24 -24 -24 -24 -24 -24 -24 -24 -24 -24 -24 -25 -25 -25 -25 -25 -25 -25 -25 -26 -26 -26 -26 -26 -26 -25 -25 -25 -25 -26 -26 -26 -26 -26 -26 -26 -26 -26 -26 -27 -27 -27 -27 -27 -27 -27 -27 -27 -27 -27 -27 -27 -27 -27 -27 -27 -27 -27 -26 -26 -26 -26 -26 -26 -26 -26 -26 -26 -26 -26 -25 -25 -25 -25 -25 -24 -25 -25 -26 -27 -28 -29 -31 -32 -33 -33 -33 -33 -34 -34 -34 -34 -34 -34 -34 -34 -34 -34 -34 -34 -33 -33 -33 -32 -32 -32 -32 -32 -32 -32 -32 -33 -32 -32 -32 -32 -32 -32 -32 -32 -33 -33 -33 -33 -33 -33 -32 -32 -32 -32 -32 -32 -31 -32 -32 -32 -32 -32 -32 -32 -32 -33 -33 -33 -32 -32 -32 -32 -32 -32 -32 -32 -33 -33 -33 -33 -33 -33 -33 -33 -33 -34 -34 -34 -34 -35 -35 -35 -35 -35 -35 -35 -35 -35 -36 -36 -37 -37 -37 -37 -37 -37 -38 -37 -37 -37 -37 -37 -37 -38 -38 -38 -38 -38 -37 -37 -37 -37 -37 -37 -37 -37 -37 -37 -37 -38 -38 -38 -38 -38 -39 -38 -38 -38 -38 -38 -37 -37 -37 -36 -36
